-32.11890793 -749.76727295 19.89611244
-60.11639023 -749.99133301 26.37233925
-28.74244690 -747.14050293 18.07929230
-43.24995041 -750.59619141 24.53757286
-30.68423462 -749.03179932 19.40019417
-41.06444168 -748.69494629 24.74610138
-70.34257507 -754.92846680 24.80767822
-44.64906693 -748.96026611 25.37882996
-35.71938705 -746.60369873 23.45636749
-37.57174301 -745.74267578 24.75755692
-31.91942024 -750.28356934 19.17205811
-60.68792343 -748.63012695 26.95016289
-35.44810486 -747.73107910 23.01775551
-31.85924911 -750.43994141 18.95577431
-35.09499741 -747.50280762 23.07468987
-59.19699097 -749.74163818 26.20097351
-56.19295120 -749.64062500 25.16477966
-35.70637894 -748.11279297 23.00168610
-31.75987244 -750.75012207 18.77976990
-48.70586395 -749.90679932 24.38787079
-31.74969482 -748.30377197 20.58263397
-60.63004684 -751.97161865 25.86070442
-67.15290833 -751.60247803 26.74077606
-38.66862488 -747.05212402 24.66642952
-35.82429123 -747.52264404 23.29488564
-44.40301132 -746.63488770 26.46065903
-33.56184769 -745.54943848 22.50413513
-33.54312515 -745.61761475 22.50504875
-70.32642365 -750.29620361 26.87266731
-67.09351349 -752.36718750 26.49994087
-50.00654984 -748.69781494 23.64377403
-33.10426331 -748.27532959 21.52173233
-65.13673401 -751.07427979 26.81003571
-74.43721008 -753.17034912 24.81711578
-43.04884720 -746.96112061 26.09684753
-33.37560654 -746.17651367 22.33563423
-36.54063797 -748.60961914 23.13443756
-32.50679016 -747.94555664 21.32077599
-53.42673874 -747.05072021 22.95033455
-65.86981201 -753.10681152 26.12413216
-60.93348694 -748.93273926 26.89936829
-33.99888992 -750.33325195 20.78764153
-49.85755539 -749.72961426 23.80847740
-33.20169449 -746.74200439 22.10813713
-44.77350616 -746.93896484 26.31770706
-49.06974792 -743.76086426 15.39679432
-56.56050491 -750.64184570 25.16374588
-63.59807968 -752.62554932 26.03178215
-39.49067307 -746.45782471 25.37402344
-61.48302460 -749.77099609 26.72873878
-32.88946915 -749.82067871 20.47389221
-70.73588562 -753.86834717 25.56801987
-47.82220459 -741.42486572 9.42850780
-39.67295456 -745.73022461 25.67032242
-50.93157196 -747.88574219 22.61398506
-30.51741409 -749.09350586 19.15152168
-32.91368866 -747.66931152 21.69965172
-37.92058182 -748.96002197 23.67579651
-63.83222580 -753.29449463 25.73766899
-32.84311676 -747.88757324 21.56834984
-56.71901703 -749.33831787 25.37651062
-32.79487991 -748.03436279 21.47013855
-71.87605286 -751.29565430 26.68481636
-69.07233429 -749.82836914 27.11431503
-68.97172546 -755.10803223 24.92404938
-32.68727875 -748.33825684 21.16930008
-30.84181786 -747.90283203 20.20214272
-32.64105606 -748.48388672 21.09243202
-69.93402863 -752.60552979 26.24176598
-32.60036850 -748.62457275 21.06861877
-45.04126358 -749.52233887 25.15482712
-32.56073380 -748.76440430 21.05501556
-65.79369354 -753.65954590 25.78279114
-51.58705902 -748.58361816 21.72990990
-32.47027206 -749.00286865 20.74251175
-31.54084969 -745.75836182 21.02302933
-67.39054108 -752.03448486 26.60356522
-32.39200211 -749.23071289 20.54732132
-32.36763000 -749.30517578 20.49872208
-32.33993912 -749.38281250 20.41928864
-72.39207458 -754.84790039 24.25378990
-32.30707550 -749.47003174 20.30791473
-32.28726196 -749.51953125 20.22985649
-60.86019897 -750.00738525 26.55226135
-49.73122025 -749.57000732 23.79091454
-39.23148727 -746.22412109 25.27341270
-32.20805740 -749.73376465 19.97542191
-31.44346428 -747.87451172 20.62219429
-32.16833878 -749.83929443 19.84115410
-65.72251129 -749.25134277 27.28889465
-29.79307747 -748.31182861 18.88406944
-32.10868835 -750.00048828 19.64886856
-33.87020111 -745.66552734 22.63827324
-37.18780518 -750.01080322 22.76084518
-47.30825043 -739.23077393 2.51795602
-53.82204056 -747.87969971 23.60948181
-45.48187256 -747.21643066 26.11338234
-31.98863411 -750.30676270 19.19880104
-65.43765259 -749.70111084 27.27939987
-31.94856453 -750.41345215 19.06410217
-52.71212387 -746.98687744 22.69687080
-60.77286148 -750.42541504 26.45803070
-32.33766556 -747.12322998 21.45856285
-38.93318558 -746.12261963 25.30908585
-35.62941360 -749.23956299 22.56327820
-32.72157288 -749.73388672 20.38989449
-71.04257965 -751.82189941 26.35312462
-34.23394775 -750.24285889 21.04727936
-42.60328293 -747.42266846 25.78664017
-33.71139145 -745.33709717 22.51474190
-33.69327164 -745.40484619 22.52182388
-33.02568054 -747.42413330 21.82861710
-47.86157608 -746.99273682 25.02510071
-42.46248627 -747.74169922 25.51543427
-47.79201889 -739.14367676 1.45445502
-48.95665359 -746.65972900 24.07072449
-45.07894135 -747.72680664 25.72842979
-33.56040573 -745.88330078 22.51071167
-33.54088593 -745.95208740 22.50378799
-56.91801071 -752.19396973 24.78714180
-33.49743652 -746.09295654 22.44592476
-33.47317505 -746.16540527 22.39178467
-66.59848022 -754.99346924 25.02807045
-64.74426270 -751.22454834 26.74218369
-41.09751511 -745.84277344 26.07330132
-56.08329773 -750.93054199 24.91373444
-60.84611130 -753.89562988 24.83663940
-56.92597580 -749.35601807 25.76275444
-61.56567001 -754.59454346 24.60297203
-33.29901886 -746.73083496 22.16194344
-36.32910156 -751.09857178 21.44181633
-37.73498154 -747.27069092 24.32189941
-33.23583984 -746.94165039 22.09835052
-35.30548477 -750.50292969 21.37594795
-66.23826599 -749.83929443 27.43441010
-38.65011215 -747.43139648 24.61918831
-33.15103912 -747.22351074 22.00915909
-69.91046906 -750.65472412 27.03943634
-47.07808685 -740.03833008 4.92067480
-33.09370422 -747.42987061 22.00408745
-65.25352478 -752.54394531 26.33106041
-64.17190552 -749.42895508 27.24114799
-71.79568481 -754.10784912 25.05388260
-45.92197037 -747.27954102 25.47490883
-32.96955872 -747.79846191 21.71988678
-32.94588470 -747.87133789 21.67473602
-39.85581589 -746.36682129 25.52731895
-75.35611725 -753.34722900 24.18676186
-35.85029984 -747.25970459 23.33684921
-32.84005737 -748.17309570 21.38888931
-32.81547165 -748.24700928 21.33590317
-70.10309601 -752.35961914 26.28615952
-60.52344131 -748.26525879 27.01070786
-69.66368866 -754.42059326 25.33465385
-36.30496597 -746.29516602 23.87104607
-37.36910629 -746.24853516 24.44980049
-36.47089767 -750.93395996 21.61674690
-41.12282562 -745.92572021 26.07674217
-36.64373398 -751.01196289 21.69617844
-43.07086945 -747.27203369 25.96781731
-48.00038910 -749.63775635 24.73817253
-39.94607162 -746.79937744 25.24186707
-44.50783539 -747.07250977 26.29684258
-37.11521530 -748.66180420 23.52138710
-64.94861603 -754.50793457 25.18236351
-32.44345093 -749.36492920 20.53083611
-48.33302689 -747.07659912 24.57983398
-69.04978180 -750.78674316 26.98124695
-32.38117981 -749.52343750 20.29634857
-67.45712280 -754.14233398 25.57762718
-62.11257553 -750.18560791 26.78130341
-35.03603363 -746.11383057 23.21906853
-49.16168976 -750.03424072 23.48759270
-32.28219223 -749.79339600 19.98617172
-49.79446030 -749.66851807 23.61821938
-32.24242020 -749.89672852 19.84373093
-74.20453644 -753.31823730 24.79327393
-48.49054718 -749.07299805 24.31227112
-48.77585220 -749.91650391 24.38070869
-43.03376389 -749.04687500 25.14662361
-32.14301300 -750.17248535 19.54846573
-66.89000702 -754.72644043 25.18538284
-32.10284042 -750.26715088 19.37050629
-39.67920685 -750.08111572 23.81432915
-32.06249237 -750.35809326 19.17763710
-69.26184082 -751.26110840 26.81468010
-32.02250290 -750.46954346 19.06065941
-58.83068085 -752.67779541 25.02657318
-74.34525299 -753.81439209 24.47160912
-33.67235947 -747.12084961 22.30852699
-33.89115906 -745.07250977 22.52462769
-31.95337868 -746.83435059 21.44589996
-57.45472336 -751.84814453 25.27216530
-37.53218842 -747.80834961 23.99802399
-33.82213974 -745.34088135 22.58809280
-60.23581314 -748.92559814 26.73123550
-33.78649521 -745.47583008 22.60807991
-45.80138397 -746.58581543 26.01522827
-58.61264801 -750.51495361 25.82213974
-64.02310181 -753.61987305 25.60430717
-69.93673706 -750.94555664 26.87862206
-44.72733307 -748.55871582 25.63126564
-33.66887665 -745.88854980 22.56007004
-43.02970123 -750.36389160 24.62195587
-39.03078842 -747.83282471 24.50691795
-71.50373077 -755.50207520 24.19693375
-41.61012268 -749.89025879 24.51395226
-57.91286850 -751.61907959 25.25669098
-46.83406830 -747.45855713 25.47242355
-51.25829697 -749.77355957 22.20390129
-66.53230286 -753.06781006 26.17349434
-70.22445679 -750.62634277 26.96766472
-68.84451294 -755.49523926 24.65059471
-33.42930222 -746.66516113 22.23828316
-65.10372925 -755.09478760 24.85026360
-60.51533508 -752.77246094 25.38353920
-33.36716843 -746.87500000 22.18434334
-64.33635712 -754.58129883 25.05080605
-61.51861954 -750.03704834 26.69920540
-33.30379105 -747.08605957 22.11878204
-71.01450348 -751.47845459 26.47029495
-62.70192719 -751.46002197 26.38730240
-50.81759262 -747.57122803 22.73628426
-33.22539902 -747.36267090 22.09220314
-33.21230698 -747.42639160 22.14916801
-33.18997574 -747.49786377 22.11590767
-67.54639435 -750.53045654 27.13769341
-63.90162659 -753.02685547 25.88012505
-33.11923981 -747.71563721 21.98056221
-33.09592438 -747.78808594 21.93828392
-72.75672913 -751.09582520 26.07613754
-42.96908569 -747.69213867 25.69406319
-33.00996399 -748.01953125 21.65787888
-66.43485260 -749.76794434 27.36985779
-57.29675674 -749.35400391 25.60705948
-32.92636108 -748.24969482 21.40276527
-53.98096085 -748.29858398 23.68796349
-32.87428665 -748.40026855 21.26905823
-37.92581940 -751.51855469 21.77363777
-58.68857193 -752.63201904 25.18032265
-47.63112640 -747.64599609 25.00626755
-32.78505707 -748.68859863 21.14604187
-61.52742767 -748.08819580 26.90141296
-48.00337219 -740.74523926 6.05004692
-31.84280586 -749.14770508 20.28470802
-32.67869186 -748.99322510 20.86270332
-32.65205765 -749.06958008 20.79199982
-62.98771286 -752.58685303 25.97061157
-33.64067078 -750.82696533 20.03660202
-34.09534073 -749.94171143 21.18295860
-32.04852676 -749.85650635 19.80296516
-73.27014923 -754.91027832 23.95760155
-47.64347076 -749.97155762 24.81032562
-32.48771286 -749.52716064 20.30840683
-49.99301147 -743.74011230 16.30180359
-36.70636368 -747.49267578 23.67164040
-32.42840958 -749.68927002 20.12340736
-32.40870285 -749.75012207 20.08639717
-72.41959381 -751.61907959 26.05567551
-48.03387451 -749.82550049 24.85480881
-32.34927368 -749.91479492 19.90880013
-53.12213135 -747.62298584 23.01423264
-73.13033295 -751.87658691 25.69143677
-55.65831375 -750.38635254 24.84340096
-44.79491806 -746.46472168 26.39066505
-51.76872253 -747.22808838 23.05689812
-45.54689026 -748.32263184 25.64121819
-30.50329018 -747.31329346 19.98926735
-32.18991089 -750.34027100 19.37593269
-32.16973114 -750.38452148 19.27498245
-35.08295441 -750.99774170 20.90834236
-49.25585938 -749.17181396 24.19030952
-72.83926392 -752.80468750 25.57584190
-43.38150787 -748.36773682 25.37481499
-31.53827095 -747.48925781 20.79908752
-39.91766357 -748.14678955 24.48194313
-49.07783508 -749.11639404 24.18332863
-49.48920822 -741.49652100 10.23838997
-33.97373581 -745.29370117 22.72517395
-70.21949768 -750.55938721 26.93788147
-55.84283829 -747.73748779 25.51417160
-33.91902542 -745.49688721 22.74183083
-37.70050049 -748.85870361 23.70239449
-33.88513565 -745.63049316 22.77924156
-33.86026382 -745.70300293 22.71731758
-33.83658600 -745.77471924 22.66770554
-38.37873840 -749.34588623 23.69163132
-47.66283035 -739.89813232 5.64665604
-43.52409363 -748.45202637 25.38948250
-33.75092697 -746.05535889 22.56231117
-33.73049545 -746.12481689 22.54608154
-33.70907211 -746.19506836 22.51998520
-32.57662964 -745.63317871 21.79877090
-33.66454697 -746.33691406 22.45119095
-39.50497055 -747.16613770 24.98375893
-38.50883865 -749.00128174 23.85932350
-31.90826035 -749.22296143 20.26456261
-57.32280350 -752.44000244 24.82899857
-33.55374527 -746.69177246 22.28643990
-46.73100281 -747.30749512 25.65780830
-39.79950714 -746.51385498 25.43158722
-33.49377823 -746.89990234 22.25343704
-33.47425461 -746.96887207 22.24717140
-62.94375610 -750.28051758 26.83884048
-72.34560394 -755.04174805 24.25439072
-33.41314316 -747.17803955 22.20347786
-51.15464401 -747.50134277 22.53413582
-53.06382370 -747.52099609 22.61594200
-33.35097885 -747.38824463 22.14998436
-47.56864548 -739.70648193 4.90595579
-33.30373383 -747.53338623 22.05800438
-50.24879074 -748.46429443 23.08253479
-36.65347672 -745.06317139 24.11036682
-71.86388397 -754.11688232 25.03802109
-40.79634094 -749.88659668 24.24081421
-33.20576477 -747.87957764 22.02601433
-30.92868423 -747.51605225 20.40209389
-33.13294983 -748.04730225 21.68826866
-46.62544632 -747.96051025 25.37917709
-69.48730469 -751.62933350 26.69232750
-74.37285614 -753.93615723 24.29934120
-71.19901276 -752.17749023 26.22246552
-49.57195663 -749.55065918 23.76409531
-72.90492249 -751.76165771 25.82773209
-44.63151932 -747.49816895 25.96458244
-69.12259674 -749.91760254 27.17083168
-56.86496735 -749.36694336 25.44982338
-32.87953568 -748.79425049 21.08462906
-51.45269012 -747.88696289 21.90954781
-43.85814667 -748.23132324 25.59926987
-32.80931473 -749.01403809 20.96227646
-32.78454208 -749.08862305 20.90881157
-30.80862427 -749.01013184 19.52663612
-32.73284531 -749.23999023 20.78213310
-61.36664963 -751.87927246 26.01144981
-68.06523895 -752.13238525 26.58763504
-71.82277679 -751.37658691 26.31249237
-48.31548309 -740.10388184 5.56481981
-67.90741730 -755.07629395 24.99075508
-43.68041611 -745.96362305 26.80213737
-32.57045364 -749.67443848 20.24039459
-68.42401123 -750.86138916 27.03490448
-32.53096771 -749.78607178 20.12970352
-32.51116562 -749.83905029 20.06357384
-49.18356323 -749.57409668 24.18887711
-48.93510437 -746.98791504 24.01727867
-37.50495529 -745.44946289 24.75072670
-29.69871521 -748.33966064 18.73167229
-40.08259964 -746.14617920 25.64817429
-46.21462250 -748.23077393 25.43161583
-40.55580139 -748.39099121 24.55648041
-63.55558014 -751.41534424 26.57587624
-33.05360031 -747.70697021 21.77672386
-41.09021378 -750.05487061 24.32072449
-40.09208679 -746.93420410 25.23229599
-71.21194458 -751.52893066 26.38702965
-32.25262451 -750.54315186 19.24447441
-43.35870361 -749.37030029 25.05780792
-30.88240433 -749.07507324 19.50461960
-62.73079300 -750.90551758 26.59171867
-32.17216492 -750.74285889 18.92153740
-34.16464233 -745.11639404 22.78695679
-34.14818954 -745.18280029 22.81117439
-31.78138542 -749.01269531 20.27566338
-70.56250000 -754.55761719 25.07887459
-34.09194183 -745.38677979 22.81287003
-51.88722610 -747.54486084 22.23617554
-46.58433151 -739.50750732 4.00868893
-34.03979111 -745.58789062 22.85648155
-47.48483658 -740.48236084 6.82973099
-46.39717865 -747.55163574 25.52347183
-33.96772766 -745.80358887 22.69766808
-47.98440933 -739.71148682 4.72663116
-70.37763214 -755.37792969 24.47357178
-41.22789764 -745.71508789 26.18081284
-47.56456757 -739.33599854 2.95699906
-42.74007416 -747.78210449 25.52215958
-66.92236328 -753.69000244 25.86059380
-44.14667511 -747.27795410 26.13413620
-67.78411865 -755.17913818 24.95199776
-31.90158463 -747.89886475 20.92427635
-33.75725174 -746.50256348 22.47709465
-30.79941368 -749.30395508 19.22149849
-43.25708008 -746.46405029 26.41865730
-33.69174194 -746.71453857 22.38898659
-44.03879929 -747.32153320 26.05218506
-33.65239716 -746.85260010 22.37372017
-48.37743759 -740.28173828 7.03984499
-57.17956543 -750.51440430 25.43875694
-42.81613159 -748.12402344 25.46771049
-49.11611176 -748.94335938 23.97248459
-58.17117691 -747.88861084 26.40488243
-33.51707077 -747.28118896 22.15873146
-33.49555206 -747.35192871 22.13351440
-41.69079590 -745.29101562 26.14808655
-33.45375061 -747.49237061 22.09542274
-33.43353271 -747.56201172 22.08317757
-68.80539703 -755.59838867 24.57688332
-66.57817078 -750.01110840 27.33736801
-57.92492676 -750.90429688 25.55099106
-50.65235138 -748.51635742 22.49629593
-42.72436523 -749.53088379 24.88176155
-74.23889923 -753.34094238 24.95754051
-28.57120132 -747.96069336 17.42834091
-49.45758057 -747.41510010 24.04312706
-40.34939575 -746.17132568 25.72596359
-33.88394928 -749.45440674 21.41725159
-34.28508377 -745.78924561 22.89101410
-47.73225021 -749.89312744 24.81357574
-33.10988998 -748.52362061 21.34536171
-33.71955872 -749.84429932 20.99308205
-64.99510193 -751.93872070 26.55377769
-65.65614319 -754.55694580 25.21606445
-33.01767731 -748.81451416 21.19473648
-37.51844788 -747.96331787 23.86244392
-43.85490417 -747.94366455 25.52998924
-42.73077393 -747.32861328 25.78131676
-57.83438492 -749.78320312 25.68270683
-37.06496048 -749.12115479 23.31007195
-61.30276871 -753.46575928 25.16389656
-36.64703369 -748.70666504 23.83393669
-40.70357132 -748.67291260 24.60069084
-32.77945709 -749.50024414 20.57405281
-34.19800949 -749.14556885 21.83283615
-35.93138504 -745.09393311 23.79816246
-36.47608185 -749.14154053 22.94283295
-49.58032227 -749.17376709 23.99979782
-32.67736053 -749.78967285 20.29245567
-45.73664856 -747.01745605 26.20083046
-32.63778687 -749.89801025 20.16957664
-56.56719208 -748.75701904 25.71743774
-61.45905685 -754.06072998 24.86905289
-31.50732803 -748.37860107 20.44778061
-32.55845642 -750.11413574 19.91990089
-66.16254425 -753.82965088 25.69973373
-65.53095245 -749.70343018 27.26757050
-32.49895096 -750.28503418 19.76348114
-32.47886276 -750.32849121 19.66056633
-47.74374771 -746.61071777 25.12123871
-50.62156677 -747.62310791 22.23143387
-32.41899490 -750.48858643 19.46145821
-32.39913177 -750.54882812 19.42046738
-50.49044418 -747.31469727 22.26961708
-49.17468262 -741.35302734 10.33245754
-58.22828674 -750.43280029 25.95937157
-29.43314934 -746.22314453 19.01713943
-34.33237457 -745.07763672 22.89449310
-64.01984406 -749.42297363 27.17832947
-38.74598312 -750.93701172 22.84014130
-34.26670456 -745.33715820 22.97243118
-34.24666214 -745.40600586 22.95968437
-74.78928375 -753.35144043 24.62228012
-34.20169449 -745.54724121 22.88443565
-57.91116714 -750.77227783 25.60635948
-49.59211731 -747.98101807 23.11412811
-58.08373642 -752.94055176 24.76898956
-50.94600296 -749.02484131 22.48561096
-61.71455383 -751.45574951 26.17591095
-34.07198715 -745.96795654 22.71455765
-50.03581238 -746.60998535 22.62255287
-34.03196335 -746.10601807 22.69113541
-68.72321320 -753.33081055 26.07519341
-33.99029922 -746.24542236 22.65143013
-33.96878052 -746.31567383 22.62476730
-71.74332428 -751.52532959 26.26486015
-47.78750229 -747.78466797 25.33765221
-74.15983582 -753.55609131 24.93215561
-33.88555908 -746.59466553 22.54767799
-33.86545944 -746.66387939 22.53562927
-70.68564606 -754.62713623 25.04007530
-59.58402634 -747.97613525 26.94679260
-33.80815125 -746.86932373 22.52946663
-61.22873688 -753.06030273 25.34222221
-49.53344345 -747.29077148 23.06757355
-33.73908615 -747.08441162 22.40736389
-70.52100372 -752.61749268 26.13985252
-39.80922318 -748.15246582 24.48338318
-60.67910767 -754.20336914 24.59423447
-31.60983467 -746.61169434 21.00988007
-40.68086243 -746.65380859 25.51811981
-33.60138321 -747.51519775 22.17099380
-30.96758080 -749.11999512 19.56570053
-56.98626328 -749.04553223 25.64743423
-31.01031685 -746.39520264 20.64757156
-61.53040695 -752.61639404 25.64453316
-47.31142807 -750.16729736 24.82514954
-74.79566956 -753.62451172 24.35119438
-33.43384933 -748.02551270 21.83459091
-63.37432861 -750.94738770 26.69173431
-42.01163864 -745.82727051 26.37878609
-65.87206268 -753.86743164 25.70974731
-60.10696030 -749.81018066 26.40871811
-33.30705643 -748.39770508 21.53051186
-35.39851761 -750.01312256 21.83722687
-44.77608109 -748.06719971 25.55972862
-47.13756561 -747.57452393 25.23324013
-55.93412018 -751.06011963 24.83487892
-58.30961227 -751.19323730 25.57812119
-36.28214645 -745.77886963 24.02573776
-68.53699493 -749.75286865 27.20644951
-33.12075806 -748.98077393 21.21142387
-37.40082932 -748.98486328 23.45652390
-33.06258392 -749.13769531 21.02312279
-61.26641464 -752.64367676 25.57211685
-34.91126251 -746.09796143 23.14538383
-65.97468567 -752.07696533 26.53029442
-46.37446594 -746.93334961 26.00547409
-34.40589142 -750.39923096 20.98000336
-37.35646439 -745.92663574 24.71364403
-33.90193558 -749.68151855 21.26640892
-37.21348953 -749.56738281 23.09488106
-45.47814178 -748.80578613 25.41337776
-43.97470474 -746.12335205 26.54958534
-32.81447601 -749.83203125 20.30829430
-31.92589378 -747.97839355 20.91274452
-61.37179565 -749.17010498 26.90752411
-32.75517273 -750.00183105 20.15106010
-32.73544312 -750.06286621 20.11474609
-49.76414871 -747.28210449 22.87436295
-46.15443039 -748.11853027 25.46608162
-43.35112000 -747.26861572 26.03518677
-33.26635742 -750.66772461 20.07530403
-32.63615799 -750.33612061 19.81238365
-42.10231781 -747.99005127 25.23616600
-32.83364105 -748.65795898 21.12826347
-64.75502777 -750.59063721 26.93655205
-32.55631638 -750.54595947 19.53449059
-32.53635025 -750.60046387 19.47213936
-42.05321503 -747.43450928 25.56353378
-58.57436752 -748.25476074 26.40604401
-44.37411499 -746.36560059 26.46870613
-36.88707352 -751.07183838 21.74275970
-34.50244522 -745.02148438 22.89789200
-45.76152420 -749.12158203 25.34401321
-34.47867966 -745.50488281 22.97866058
-46.89221191 -746.86724854 25.51062012
-36.91798401 -745.38934326 24.39770317
-40.09485245 -745.48504639 25.85946083
-45.95903778 -747.09509277 25.80638504
-38.23622894 -748.19232178 24.04273987
-74.15784454 -753.12896729 24.93556786
-44.30198288 -746.27221680 26.69483566
-59.87640762 -748.81353760 26.67127037
-32.55698776 -749.77587891 20.23849869
-43.86966705 -746.55694580 26.48177910
-61.95747375 -753.12048340 25.43710899
-34.23054886 -745.97967529 22.81241798
-68.46694183 -753.44769287 26.03812408
-34.18793106 -746.11956787 22.76270294
-34.16616058 -746.18994141 22.73329926
-34.14649200 -746.25866699 22.72517776
-34.12622070 -746.32794189 22.71101189
-37.56784439 -747.39849854 24.10389519
-34.08636093 -746.46594238 22.68972778
-43.17729950 -748.44525146 25.31094360
-71.27393341 -754.59814453 24.88375664
-34.02316666 -746.67572021 22.62423515
-62.50929260 -750.54785156 26.72311974
-33.98009491 -746.81640625 22.57162476
-33.95927048 -746.88629150 22.55249977
-72.21179962 -754.44958496 24.68069077
-33.91657257 -747.02685547 22.50412178
-67.09107208 -754.07598877 25.63694000
-68.60610199 -750.32885742 27.21105003
-36.12382889 -745.13201904 23.88094711
-57.29674149 -749.55187988 25.93054199
-55.31749344 -747.68615723 25.03074837
-33.78131485 -747.45513916 22.29082489
-61.84883118 -754.02075195 24.95763397
-33.79986954 -747.14080811 22.36664963
-33.71892929 -747.66534424 22.23701477
-63.99224091 -752.01104736 26.29795265
-64.72337341 -751.85894775 26.55828857
-66.46665955 -749.63012695 27.35816574
-33.61484528 -747.96392822 21.96335983
-55.83518219 -748.91412354 25.03208160
-33.96387100 -750.01141357 20.97188759
-33.54446793 -748.18182373 21.83468628
-33.51034164 -748.26391602 21.68918228
-41.35028839 -748.62573242 25.01907539
-50.42176056 -748.20257568 22.73449707
-32.42372513 -749.69097900 20.17693520
-55.33819199 -748.11145020 24.98586845
-33.39896011 -748.62286377 21.53558540
-34.04359436 -750.13153076 20.99551964
-67.11817932 -750.19561768 27.29372406
-70.95204926 -755.36248779 24.35778046
-65.91658783 -750.74597168 27.02361107
-56.77159500 -752.34796143 24.62438393
-48.14548874 -750.35308838 24.00035286
-33.22365570 -749.14471436 21.14140892
-30.44261169 -748.49401855 19.46220398
-66.98770142 -752.46838379 26.45323944
-42.20496368 -746.10675049 26.32981491
-33.12333679 -749.44415283 20.91873550
-40.88888168 -746.46704102 25.75155067
-33.07789230 -749.56231689 20.75623512
-33.05812073 -749.60723877 20.66259575
-33.03845978 -749.66638184 20.62050056
-33.01883316 -749.73034668 20.59580803
-32.99907303 -749.78155518 20.52450562
-39.17665482 -749.43572998 23.90260315
-32.95945740 -749.87963867 20.36531830
-32.93964767 -749.93084717 20.29346466
-67.07857513 -750.05932617 27.36203384
-57.93517303 -752.85925293 24.78266335
-70.02922821 -750.50146484 27.00208473
-42.22970200 -748.19232178 25.16207504
-36.55954361 -745.52667236 24.44110680
-71.93157196 -751.34326172 26.27042389
-42.90773392 -747.34350586 25.84210205
-64.77872467 -750.81372070 26.88732529
-57.20516205 -748.44818115 25.98807907
-59.37903214 -751.31591797 25.80787468
-55.07159805 -747.64147949 24.75986481
-34.26971054 -748.89422607 22.00906563
-47.88522339 -740.03582764 4.57602596
-72.44910431 -753.52514648 25.33744621
-40.23675156 -746.97052002 25.25416946
-43.41180801 -746.22100830 26.53534698
-69.91112518 -753.14691162 25.99933624
-34.64734268 -745.09460449 23.07240295
-73.44375610 -754.20275879 24.44757462
-65.94606781 -755.16503906 24.85555077
-47.15756226 -739.54101562 4.15344000
-63.94461441 -749.44317627 27.25358009
-34.57349396 -745.42266846 23.28937912
-63.21383667 -754.47528076 24.96600723
-72.70271301 -751.39062500 26.01841164
-37.60929108 -746.25292969 24.58191872
-34.46900558 -745.71539307 22.98923302
-39.18050003 -747.78961182 24.57955170
-39.26848984 -748.83428955 24.08789062
-37.21267700 -751.31451416 21.67469788
-34.38492966 -745.99383545 22.89981651
-56.02779388 -751.21868896 25.00098610
-48.50728607 -740.35729980 6.77115583
-42.86327744 -747.71423340 25.65800667
-48.38215256 -747.08026123 24.52437401
-60.14058304 -752.06323242 25.66707802
-68.35260773 -752.11431885 26.56257820
-48.14542007 -740.32513428 7.41417789
-34.77014160 -751.05450439 20.49592590
-37.45553589 -746.24871826 24.52527237
-40.77833557 -746.69421387 25.57741356
-34.14953995 -746.76489258 22.61911011
-62.95573425 -751.25964355 26.53752708
-37.69757843 -748.06152344 23.88021088
-47.01562881 -747.44042969 25.40478134
-36.23626709 -747.41821289 23.49202919
-71.24030304 -750.73248291 26.66975594
-37.54197693 -750.15649414 22.83795166
-58.65917587 -752.65063477 24.99940491
-28.40505028 -747.33996582 17.92409325
-30.16053200 -747.54199219 19.67205238
-70.04579926 -750.72167969 27.05006981
-40.95134735 -751.55816650 23.17185211
-67.28025818 -749.93811035 27.34594917
-73.44415283 -752.37084961 25.51455498
-44.87360001 -746.73406982 25.92679405
-59.51964569 -751.37042236 25.81915283
-75.65808868 -752.62701416 24.22686958
-29.89462662 -746.61138916 19.59961128
-61.32439423 -753.79669189 24.97785759
-40.54589462 -747.49511719 25.12244797
-66.60657501 -753.57940674 25.89589691
-33.66490173 -748.27679443 21.77323914
-47.40877914 -746.90600586 25.34414482
-39.74438095 -746.76763916 25.19748497
-48.44064713 -749.41461182 24.58130074
-40.29901123 -745.56182861 25.89836693
-38.09001923 -750.63848877 22.74652100
-54.34026337 -747.51031494 24.03697205
-46.97223282 -739.80773926 3.83930707
-58.11738968 -750.97918701 25.62440109
-72.18550873 -750.95312500 26.37238503
-28.51410866 -748.13122559 17.13772011
-59.33225250 -753.51440430 24.71830177
-71.19002533 -753.79711914 25.54489517
-33.35425186 -749.23089600 21.17802429
-41.53800201 -745.78906250 26.40232658
-33.30736160 -749.37744141 21.09716606
-48.62359238 -749.15093994 24.11947823
-33.26498413 -749.51983643 21.05928040
-42.71215439 -748.60485840 25.17374039
-36.99211121 -745.47161865 24.74942207
-33.20064163 -749.65008545 20.69750404
-33.18092728 -749.70245361 20.63084793
-71.90545654 -751.21887207 26.33021164
-33.14165497 -749.82666016 20.56821823
-41.16561890 -746.83892822 25.65039825
-65.24864960 -753.77221680 25.66038704
-43.76399612 -748.25354004 25.45644951
-59.33319855 -750.06439209 26.16894150
-32.13739777 -749.39593506 20.22844315
-36.86452103 -747.67706299 23.68575287
-59.08883667 -748.89685059 26.60113144
-56.12070465 -749.62902832 25.15345001
-32.96380615 -750.32910156 20.07231522
-47.32209396 -738.91687012 0.90306598
-32.92405319 -750.43475342 19.93794823
-39.44073105 -745.80883789 25.53011703
-38.07983780 -746.54833984 24.71806908
-71.13819885 -751.51867676 26.43901062
-31.81176186 -746.64611816 21.14932823
-39.56793213 -747.56909180 24.88765335
-46.00222015 -747.48791504 25.76986504
-43.34116364 -749.75646973 24.87075233
-40.55801010 -746.11907959 25.83350754
-33.56251907 -745.85107422 22.48024368
-32.72421646 -750.95977783 19.24089622
-36.63072586 -749.89331055 22.60443497
-34.85335541 -744.94293213 23.09171486
-43.92866135 -747.69714355 25.79937744
-34.82207870 -745.07415771 23.15731049
-42.30446243 -748.32031250 25.15561104
-40.09365082 -749.21673584 24.27059555
-31.45336342 -748.10247803 20.53713417
-50.00515747 -749.57794189 23.18749237
-34.74464417 -745.40136719 23.32771301
-67.18121338 -753.87536621 25.76090813
-34.69481277 -745.54565430 23.20205688
-72.61402130 -752.77941895 25.71677399
-34.65048981 -745.68621826 23.13348961
-31.52413559 -748.41595459 20.45666695
-46.22561646 -748.03558350 25.63904190
-57.03004837 -749.98870850 25.48561287
-34.55996323 -745.96917725 22.97872734
-62.55820465 -752.06713867 26.10802650
-34.51112366 -748.17742920 22.40902710
-71.84697723 -750.75408936 26.42808151
-34.47417068 -746.24902344 22.87387657
-34.45095444 -746.32043457 22.83007050
-29.11089706 -748.78619385 16.79685974
-34.41000366 -746.45910645 22.79799843
-58.71567535 -750.01513672 25.90819740
-66.75473785 -754.40051270 25.39303207
-37.27370071 -747.49456787 23.96228027
-68.19087219 -750.93792725 27.03367043
-34.30663300 -746.80682373 22.70907593
-62.01033401 -751.71539307 26.17739677
-34.26748657 -746.94427490 22.69585991
-34.24715805 -747.01361084 22.68181610
-34.22774124 -747.08227539 22.67685699
-36.30245209 -745.68591309 24.05466843
-36.22259521 -747.53173828 23.53487396
-58.51503754 -748.71777344 26.24979019
-56.49253464 -751.21038818 25.17813110
-36.21212006 -749.01007080 22.89630508
-75.40963745 -752.52593994 24.62174225
-48.94136047 -749.37603760 24.53417015
-68.92451477 -751.21191406 26.85317230
-34.02230072 -747.72656250 22.33361053
-47.11463928 -739.02514648 1.72132599
-33.97869492 -747.86834717 22.27873802
-61.31740189 -751.80303955 26.04388809
-33.92367935 -748.02020264 22.11338425
-33.89962387 -748.09326172 22.06460762
-41.70548630 -748.16510010 25.19246674
-44.07895279 -748.73791504 25.42951965
-72.77812195 -754.96508789 24.08326530
-47.98474503 -750.59539795 23.93850136
-74.20559692 -754.01300049 24.31505585
-35.03720474 -747.12780762 22.97410583
-60.41965485 -750.78869629 26.13776970
-35.02276611 -749.73614502 21.92472267
-33.68711472 -748.74877930 21.67077827
-42.13712311 -750.64190674 24.36377907
-37.98009109 -746.70379639 24.53352928
-65.52597046 -750.52612305 27.04222679
-42.45010757 -746.18048096 26.34169197
-36.37285614 -747.34405518 23.57252312
-33.53320312 -749.19915771 21.29859543
-33.50616837 -749.27569580 21.22415924
-30.41019249 -749.02655029 19.09246254
-33.45710373 -749.42425537 21.12323761
-33.42411804 -749.50823975 20.99890709
-38.12973404 -750.24133301 23.04015541
-33.38481522 -749.61761475 20.88397026
-70.98152161 -754.45605469 25.03940773
-33.34545517 -749.72607422 20.76490974
-37.49796295 -750.56811523 22.52762985
-43.92334747 -747.42089844 25.98485756
-55.94511795 -751.36956787 24.82384109
-50.44845581 -749.05047607 23.16600037
-38.79119873 -749.37030029 23.83108330
-36.98095322 -750.37939453 22.40015602
-33.20738220 -750.11572266 20.38007355
-35.95916367 -749.43829346 22.62256432
-33.89973831 -747.55786133 22.32227898
-41.32625580 -749.31677246 24.74645042
-33.12824249 -750.34075928 20.16547012
-42.92961884 -745.89819336 26.54286575
-33.08853531 -750.44891357 20.04081917
-33.06863022 -750.50097656 19.97087479
-33.04867935 -750.55139160 19.89427376
-49.70528793 -747.11743164 23.61938667
-57.91442871 -750.54406738 25.87265778
-43.88423157 -746.11175537 26.48966599
-36.38521194 -751.16571045 21.36670113
-32.94906998 -750.82611084 19.59397697
-61.02028656 -751.30010986 26.10837555
-55.58640671 -749.73315430 25.14828491
-55.64719772 -747.46490479 25.74623108
-32.86962509 -751.06945801 19.44059753
-48.52695847 -747.01623535 24.36597633
-35.03314209 -744.89923096 23.25417137
-63.88545990 -752.81884766 26.01266098
-33.45524216 -750.31286621 20.40359116
-34.98287964 -745.09808350 23.31829071
-34.96391678 -745.16589355 23.31670952
-46.65007401 -747.58380127 25.37004089
-50.51209259 -747.32824707 22.24730873
-38.64519882 -750.33489990 23.19085121
-40.93681717 -748.63488770 24.69845009
-37.51699066 -747.78991699 23.95685959
-37.50111771 -747.79339600 23.95113945
-71.55976105 -751.33544922 26.36816406
-34.80089569 -745.71685791 23.18888664
-34.77935410 -745.78662109 23.16131592
-72.84785461 -753.88543701 24.97677422
-36.38518524 -746.74597168 23.84959984
-36.75541687 -749.26916504 23.03838921
-31.94703865 -750.37872314 19.23913956
-34.67269516 -746.13531494 23.03557968
-59.35346222 -749.77996826 26.22432709
-34.62488937 -746.27893066 22.93401337
-43.16093063 -747.44049072 25.83532715
-40.28999710 -746.93634033 25.25420761
-71.86364746 -754.39654541 24.82099724
-74.60329437 -752.89361572 24.83547783
-68.45696259 -751.41766357 26.81930733
-71.91772461 -751.94189453 26.07815552
-46.92851639 -739.69964600 3.90616107
-57.43782806 -751.81146240 25.20685196
-34.44051361 -746.90270996 22.79171944
-41.39027786 -746.64935303 25.81732941
-34.99240875 -746.10095215 23.35046959
-34.37980270 -747.11035156 22.75284386
-34.35688019 -747.18176270 22.71338654
-39.91287994 -745.84100342 25.72353172
-34.31299210 -747.32318115 22.65420532
-68.71064758 -750.73486328 27.03441620
-61.55166245 -748.91448975 27.18480873
-34.24145889 -747.54034424 22.51017570
-61.13602829 -750.31524658 26.55381012
-45.36265945 -748.20623779 25.71766281
-34.17497253 -747.75354004 22.41699409
-46.88162994 -739.31567383 0.55675101
-36.37860489 -746.13708496 23.93141556
-73.75679016 -751.49273682 25.61883736
-52.74422836 -747.70367432 21.81727028
-54.62985992 -749.18579102 24.34240532
-34.02647018 -748.19445801 22.08290100
-34.00260544 -748.26733398 22.03640366
-49.00772095 -747.03967285 24.29678726
-33.95010757 -748.41754150 21.89790535
-38.52738953 -745.50299072 25.22923279
-33.91004562 -748.55670166 21.87995911
-47.04127121 -747.23883057 25.02874374
-61.87588120 -754.02087402 24.96631813
-55.87719727 -748.27252197 25.35899734
-51.99449921 -746.85400391 21.49036980
-48.99987411 -740.81890869 7.92825794
-36.75645447 -748.99023438 23.29835510
-46.73297882 -748.36920166 25.30537224
-56.87754440 -749.04010010 25.57362747
-47.26069641 -739.51782227 3.77670598
-68.91271210 -751.20062256 26.86495399
-40.57025528 -751.34973145 23.29501534
-29.04809570 -748.89355469 17.72654343
-35.44028091 -749.52874756 22.29589462
-33.56672287 -749.56585693 21.07091141
-60.22254181 -752.90863037 25.19095612
-46.07228088 -747.25445557 25.57230186
-33.50773621 -749.72979736 20.89811134
-33.48805237 -749.78497314 20.84221268
-33.46836472 -749.84155273 20.79104996
-38.30493164 -747.86114502 24.25309563
-40.69123840 -746.99932861 25.35925102
-33.40913010 -749.99902344 20.59200668
-29.85517311 -747.83093262 19.28241730
-33.36962509 -750.11004639 20.48062897
-35.83595657 -745.91076660 23.71725845
-72.55295563 -752.10430908 25.79804802
-28.48586082 -747.37951660 17.99307060
-36.75021744 -745.81176758 24.41735077
-33.27080154 -750.40087891 20.24897194
-61.34557724 -749.15582275 26.94635773
-37.87462234 -747.06164551 24.45347786
-33.21107101 -750.55291748 20.02430344
-33.19105530 -750.59930420 19.93251228
-33.17111969 -750.65191650 19.86429596
-59.22013474 -749.97656250 26.12595940
-37.33730316 -746.92266846 24.25490189
-41.48102188 -745.81414795 26.42037201
-65.12338257 -754.46942139 25.21760368
-42.12015915 -748.20739746 25.27797890
-33.05192566 -751.00933838 19.60851479
-56.93303299 -750.85729980 25.25303459
-33.01207352 -751.12615967 19.51344872
-32.99211502 -751.18389893 19.46313858
-44.09335709 -746.44012451 26.66470146
-48.82630539 -749.64245605 24.47890282
-33.51881409 -750.01806641 20.69897842
-52.36899567 -746.94207764 21.57883072
-35.13864517 -745.07708740 23.44572449
-35.11998367 -745.14459229 23.44703102
-57.06822205 -749.58850098 25.50819016
-58.77798462 -750.40466309 26.09818649
-45.86620712 -748.84783936 25.36636734
-45.11241913 -749.95306396 24.97625160
-35.02362823 -745.48449707 23.42218208
-67.85903931 -753.02703857 26.19453239
-29.72650909 -747.12506104 19.32807350
-30.42395401 -749.51983643 18.28352547
-34.93622971 -745.76416016 23.29718590
-67.73077393 -755.06262207 24.99830627
-34.89222717 -745.90441895 23.23229027
-34.87090302 -745.97406006 23.20688057
-34.84924698 -746.04400635 23.17821503
-34.82479858 -746.11614990 23.12125969
-43.39332962 -748.44244385 25.51867485
-34.77917862 -746.25793457 23.04116631
-71.90192413 -753.14630127 25.68445778
-33.49272156 -749.15148926 21.32134056
-33.88142014 -750.56420898 20.47121620
-34.69135284 -746.53936768 22.91697502
-69.80635834 -753.17327881 26.00037575
-49.72994232 -742.09674072 12.10425663
-36.65571594 -747.36425781 23.82034874
-35.83779526 -747.12060547 23.36787224
-34.16351318 -745.51721191 22.74322891
-52.92241287 -747.30828857 22.59490967
-42.07866669 -748.02166748 25.33757973
-48.11030960 -741.16937256 10.23288536
-55.51001358 -750.87200928 24.74722672
-60.54186630 -749.05609131 26.80373192
-49.54301453 -749.54071045 23.81345558
-34.77554703 -747.34417725 22.83458710
-67.75012970 -750.56201172 27.12051201
-32.29941559 -750.11859131 19.75260925
-33.34979630 -747.29089355 22.03437233
-30.64792633 -748.59552002 19.54925728
-64.44592285 -753.71337891 25.55239105
-34.30794144 -747.80169678 22.49536324
-61.52623749 -753.18731689 25.30885124
-34.25751495 -747.94921875 22.37373161
-47.47731018 -748.21057129 25.07181358
-34.20742416 -748.09667969 22.25618172
-29.45039368 -748.29486084 18.54022408
-34.20449448 -749.15985107 21.82785225
-49.19927597 -742.42144775 13.34302044
-44.34524155 -749.87738037 24.94708443
-72.51726532 -751.79559326 25.91619301
-37.19466019 -746.20404053 24.33707619
-59.75125122 -752.32965088 25.37380791
-34.01966858 -748.67718506 21.91493988
-33.99930954 -748.74707031 21.90279007
-54.02032852 -748.33679199 23.76360893
-48.31341934 -740.19116211 6.70267677
-42.19699097 -745.84552002 26.62931442
-43.23113632 -750.92474365 24.19585228
-33.87453079 -749.11822510 21.62366295
-60.03915024 -752.37640381 25.44083023
-31.21223831 -749.34417725 19.49921417
-45.73535538 -747.26782227 26.07089043
-33.76667023 -749.42370605 21.32736778
-31.06507111 -746.96673584 20.59323692
-41.16140366 -748.29541016 24.84942436
-33.69043732 -749.64105225 21.12298775
-44.35563278 -746.49035645 26.47764206
-71.69389343 -753.54846191 25.56952286
-33.63148499 -749.80108643 20.93618011
-68.84450531 -752.61730957 26.32215309
-49.10631180 -749.93359375 24.22894287
-33.57239151 -749.95935059 20.74136925
-51.37562180 -747.54132080 23.16030312
-65.11112976 -754.80303955 25.02746010
-35.97674561 -749.19317627 22.72716331
-61.36826324 -749.98590088 26.68088913
-33.47378159 -750.24096680 20.47886848
-33.45405579 -750.30029297 20.43706512
-33.43431091 -750.35845947 20.39069939
-40.29006195 -748.70861816 24.46749687
-36.98277664 -747.87774658 23.65171623
-66.08925629 -752.09954834 26.52137375
-49.03578186 -741.48181152 10.94783878
-52.98659515 -746.92486572 21.38282013
-33.31513214 -750.67346191 19.98264885
-46.98625183 -740.11181641 5.15129709
-71.95393372 -752.52801514 26.00474548
-31.30282784 -747.73718262 20.57056427
-33.23559570 -750.89794922 19.76150703
-34.19718552 -750.60589600 20.69792366
-32.59399414 -750.10522461 20.04502487
-36.29448318 -747.54168701 23.46484566
-57.63800812 -748.02929688 26.30513000
-33.13689041 -751.22943115 19.67614937
-42.11623001 -746.18695068 26.24433517
-36.70789719 -748.82659912 23.18882179
-47.36201477 -748.00701904 25.20949554
-51.96842194 -747.47961426 22.24946785
-65.37316895 -749.47534180 27.36590385
-47.71719360 -739.35272217 2.18788791
-32.66625214 -749.39031982 20.66580200
-35.23611832 -745.24749756 23.58338547
-58.12901306 -751.92895508 25.33582306
-38.50369263 -749.79003906 23.49023438
-74.37014008 -752.88922119 24.99112320
-40.25188828 -746.31103516 25.60019112
-45.21737671 -748.02276611 25.56453514
-61.31811142 -750.18487549 26.61697006
-35.08653259 -745.73388672 23.39499283
-35.06309509 -745.80499268 23.34721947
-67.76841736 -755.04589844 25.03035927
-35.01841354 -745.94573975 23.27467728
-34.99462891 -746.01727295 23.22382545
-57.96151733 -750.87969971 25.59580040
-34.95154572 -746.15698242 23.16839981
-74.77785492 -753.29742432 24.49330521
-71.95047760 -753.73986816 25.73323822
-43.09810257 -747.85614014 25.60672569
-57.97246933 -750.50366211 25.69751740
-34.84240723 -746.50799561 23.01704979
-68.64680481 -750.08685303 27.25657272
-72.67189026 -752.58245850 25.74466705
-39.78326035 -751.58789062 22.68355179
-32.39330292 -749.91168213 20.01108170
-34.73385239 -746.85925293 22.87428093
-34.71478271 -746.92749023 22.87249565
-57.48834610 -748.34167480 26.27144432
-73.14412689 -751.03771973 25.86114120
-46.38696671 -748.28924561 25.53634262
-65.64703369 -750.62445068 27.01033974
-58.12591171 -750.86029053 25.65034294
-69.43216705 -750.40850830 27.09618187
-34.56700516 -747.41705322 22.71894073
-43.00989532 -747.28387451 25.96142006
-43.39664078 -748.63867188 25.30616760
-34.50024033 -747.63012695 22.62047386
-50.82320404 -747.58532715 22.57713509
-31.99660683 -747.12170410 21.49009323
-36.22714615 -750.98980713 21.54525948
-41.94696426 -746.89721680 25.78049850
-39.82266235 -747.93743896 24.67265320
-49.08717346 -749.56463623 24.43972969
-65.01482391 -749.18341064 27.22583199
-34.17489243 -745.94592285 22.80422592
-42.06936646 -747.49383545 25.62561989
-59.56987762 -752.16058350 25.59479141
-35.68576050 -748.36987305 22.82495880
-65.70789337 -749.98541260 27.23691177
-49.64810944 -741.63616943 10.25573444
-47.74983597 -747.59423828 24.98403931
-73.72940826 -754.19659424 24.25894737
-65.53481293 -752.99053955 26.17932701
-46.90020752 -748.67523193 25.08179855
-43.18860626 -745.88159180 26.55663109
-40.25751495 -750.86553955 23.58494186
-63.80662155 -750.71337891 26.79632950
-48.30455399 -747.52893066 24.56823921
-57.67472458 -752.58026123 24.81240273
-69.43405151 -755.22521973 24.82934761
-72.17951965 -755.29156494 24.13280106
-63.22867203 -749.73834229 27.28330803
-39.39412308 -746.16632080 25.44396400
-58.65726852 -753.53021240 24.59292603
-66.51409149 -754.75494385 25.17600632
-33.77189636 -749.80407715 21.00687599
-34.87944031 -747.31561279 22.87779999
-60.92217636 -750.56481934 26.43524551
-44.35404968 -746.80334473 26.37566948
-62.64452744 -753.28576660 25.51486588
-44.15188980 -749.36505127 25.19127083
-60.54862976 -751.36981201 26.09601593
-39.98763275 -746.80364990 25.33676910
-29.44946098 -748.69366455 18.44430161
-35.02833557 -748.36022949 22.55039406
-36.22050476 -745.18444824 23.96965027
-33.55538559 -750.41906738 20.41514778
-60.90607452 -749.73144531 26.62899017
-31.23546791 -747.13427734 20.67162514
-69.77922821 -752.51623535 26.28961182
-67.19870758 -754.05725098 25.64166451
-70.61032867 -751.42340088 26.58284950
-42.74994278 -745.94256592 26.51282883
-33.41662216 -750.79498291 19.97052765
-63.68989563 -752.42864990 26.18038559
-33.37703705 -750.91497803 19.88954544
-55.55974197 -749.28314209 24.90837669
-45.56061935 -748.18951416 25.52124023
-41.66552353 -745.39611816 26.68006325
-65.55077362 -749.99011230 27.20477676
-70.61742401 -753.58593750 25.75556374
-37.04808426 -749.53497314 23.06484604
-42.46658325 -746.75402832 25.98755455
-64.41269684 -753.64166260 25.63582802
-35.43621445 -745.06201172 23.58590508
-35.41968155 -745.12799072 23.60892868
-29.83381844 -748.00640869 19.06536484
-51.96751022 -746.53503418 22.15474892
-55.97234726 -750.57586670 25.15172768
-58.41719437 -752.76257324 25.06742287
-39.13565063 -748.41931152 24.11720657
-32.89750290 -749.35675049 20.82974243
-66.07772827 -754.74005127 25.15362358
-39.89831924 -745.40734863 25.81397438
-32.53221130 -746.93121338 21.61605453
-35.21150208 -745.81866455 23.39562416
-73.24613953 -752.19769287 25.62003326
-44.07601929 -748.88317871 25.40346527
-32.83261108 -750.09881592 20.15216064
-35.12542343 -746.09771729 23.28393745
-31.71763992 -748.28820801 20.58588791
-48.03384781 -739.20129395 2.67418408
-37.14555740 -746.17504883 24.32398415
-42.59614563 -750.53894043 24.45609283
-35.01407623 -746.45007324 23.10852623
-36.89817047 -749.36700439 23.11204147
-62.59767532 -749.60858154 26.97642517
-38.93004990 -751.46282959 22.53959084
-66.64849854 -752.41949463 26.44349289
-39.37518311 -747.75872803 24.66399193
-63.29459381 -751.64642334 26.46923065
-68.29571533 -753.31481934 26.08696365
-59.61766815 -751.51568604 25.78518867
-74.23316956 -753.49987793 24.77246475
-44.87173462 -746.50152588 26.27063751
-34.78327560 -747.21649170 22.87469101
-34.76261139 -747.28607178 22.85709000
-62.77108002 -749.28143311 27.15332794
-43.44964600 -750.38232422 24.69148254
-36.84971619 -749.52075195 22.97559166
-37.16085434 -745.15283203 24.57507706
-36.36611557 -746.30773926 23.87170410
-44.87944031 -746.70220947 26.37856293
-38.04040909 -747.83020020 24.15847015
-34.58115768 -747.85705566 22.55987549
-60.73570633 -751.87811279 25.92276764
-35.30152893 -747.60882568 22.98308182
-68.86415100 -752.81091309 26.22743797
-41.73963547 -749.06945801 24.83516121
-60.40291214 -753.68487549 24.83004951
-34.43073273 -748.29956055 22.20256042
-41.10995483 -748.73889160 24.73763084
-31.63875961 -748.36163330 20.51987648
-30.40371323 -749.85833740 18.20871925
-59.58570862 -748.89367676 26.56429291
-61.94028473 -751.83398438 26.11846733
-56.45255661 -747.95587158 25.92735291
-37.17903519 -748.41827393 23.39229774
-56.55526352 -750.98315430 25.27742004
-34.23234558 -748.94165039 21.94149780
-36.74826813 -748.25958252 23.33718109
-33.98411560 -748.65417480 21.85281181
-42.15610504 -750.26959229 24.50513458
-34.13652420 -749.23498535 21.75498772
-68.57480621 -750.28472900 27.23620415
-47.61054993 -746.91790771 25.20212746
-41.13140106 -747.47302246 25.37814522
-71.12084961 -753.78637695 25.55176735
-51.65785599 -747.22918701 21.90659714
-47.68354797 -747.58447266 25.01280594
-59.25933456 -748.78704834 26.49151421
-62.86893845 -750.42163086 26.81542015
-33.89430618 -749.91558838 21.06501579
-46.35461044 -739.53704834 2.49848509
-46.33324814 -747.06433105 25.98554230
-57.76578903 -748.76867676 26.02150917
-69.48941803 -751.61169434 26.68597412
-38.15656281 -750.64929199 22.78469849
-50.23900986 -747.02478027 22.53036880
-32.70240784 -747.83184814 21.49845505
-64.11028290 -751.92633057 26.38322258
-33.71725082 -750.40216064 20.52133560
-66.02642822 -754.77362061 25.14019775
-42.81180954 -749.54064941 24.99146843
-28.29578590 -747.43756104 17.46283150
-62.43208694 -753.25183105 25.48287582
-33.77392578 -746.07739258 22.55266571
-47.74501801 -740.44769287 7.02837515
-33.57866669 -750.77374268 20.06254387
-39.06243134 -745.66131592 25.42411232
-33.53899002 -750.88403320 19.94510460
-32.71508789 -748.24481201 21.34023666
-47.46583939 -740.31872559 6.21634817
-48.36758423 -747.46453857 24.53480721
-33.45903778 -751.07897949 19.61052895
-33.43923950 -751.14135742 19.57843208
-43.16680145 -746.62493896 26.28721809
-30.40738678 -746.92376709 20.02305603
-38.21024323 -746.35247803 24.85180092
-39.39726639 -745.63861084 25.80577660
-45.48554230 -749.57788086 25.16314125
-39.31103134 -749.56646729 23.90737915
-69.86524200 -753.82006836 25.72123909
-35.49057007 -745.43298340 23.71253967
-59.74275589 -750.89617920 26.00324631
-42.24337769 -748.46075439 25.09757233
-56.53495407 -751.65661621 25.03732872
-35.40258408 -745.71246338 23.57825470
-36.75439072 -750.73785400 22.03836441
-47.41432953 -739.80883789 3.23816705
-48.64108658 -750.30786133 24.26234818
-35.31428528 -745.99273682 23.44270134
-35.29311752 -746.06219482 23.41839600
-35.27162170 -746.13195801 23.39083672
-70.26091003 -752.80096436 26.10782814
-42.88520050 -750.35058594 24.60435486
-35.20672607 -746.34161377 23.30461311
-52.75168610 -747.14813232 21.51817513
-38.24074173 -749.90667725 23.30107498
-64.93518829 -751.46466064 26.70628166
-66.24427032 -752.64654541 26.30752182
-31.47476768 -748.63641357 20.18273354
-48.43175888 -747.93548584 24.07544136
-62.68827820 -748.59881592 27.19679451
-74.43859100 -752.91363525 25.11030388
-73.06038666 -754.70458984 24.11212349
-34.98318481 -747.04833984 22.95151138
-59.09428024 -750.79150391 25.82762527
-49.16545105 -749.89776611 24.20268250
-52.46118164 -746.84710693 21.83835602
-62.71634674 -750.30230713 26.80751228
-63.25897980 -753.47778320 25.52674294
-71.63283539 -753.40863037 25.55487442
-53.01988983 -746.98315430 23.30962753
-72.23349762 -754.61279297 24.52656937
-62.28498840 -751.49005127 26.27413750
-34.76849747 -747.75085449 22.69795799
