-50.31887817 -743.67645264 17.05893517
-50.40768433 -743.72204590 17.40653992
-50.42242432 -743.79888916 17.50917244
-50.46204376 -743.86499023 17.69392014
-50.47594452 -743.94195557 17.79362488
-50.52473068 -744.00378418 18.00842667
-50.55690384 -744.07257080 18.16826820
-50.67790985 -744.10253906 18.62105942
-50.79673386 -744.13299561 19.06636810
-50.84902954 -744.19219971 19.29205894
-50.86486435 -744.34924316 19.45055771
-50.87578583 -744.42626953 19.53963661
-50.90577698 -744.49475098 19.69143867
-50.92244339 -744.56903076 19.79930496
-50.93050385 -744.64709473 19.87878227
-50.94311142 -744.72302246 19.97316170
-51.44579315 -744.84143066 21.85025978
-51.42235565 -745.07110596 21.91523743
-51.45594406 -745.29650879 22.18168640
-51.58046722 -745.31829834 22.64176941
-51.66805649 -745.35699463 22.98055840
-51.67802429 -745.43206787 23.06493187
-51.55297852 -746.28869629 23.17256355
-46.11766434 -740.30041504 -0.92076200
-46.11101532 -740.58483887 -0.75959998
-46.11397552 -740.67779541 -0.68850398
-46.36254883 -741.71270752 0.87575799
-46.30327225 -742.19781494 0.97880501
-46.30363083 -742.29034424 1.04026902
-46.29722595 -742.38531494 1.07907403
-46.24230957 -742.49822998 0.95563102
-50.98517990 -744.07385254 18.98305702
-50.98407364 -744.23858643 19.08623505
-51.01927185 -744.30511475 19.25565720
-51.05789185 -744.45172119 19.48948097
-51.08695602 -744.52050781 19.63841629
-51.13114166 -744.58233643 19.83703613
-51.19244003 -744.63629150 20.09186363
-51.23038483 -744.70050049 20.26967430
-51.27125549 -744.76324463 20.45699501
-51.27632141 -744.84216309 20.52648544
-51.28839111 -744.91778564 20.61893654
-51.32205582 -744.98339844 20.78229904
-51.33794022 -745.05706787 20.88715553
-51.36175919 -745.12695312 21.01800156
-51.40077972 -745.18963623 21.19867134
-51.45188141 -745.24652100 21.41884995
-51.48817825 -745.31011963 21.59034538
-51.49403381 -745.38781738 21.66189957
-51.50622940 -745.46252441 21.75419617
-51.65554810 -745.63232422 22.39991570
-51.76654816 -745.65917969 22.81531715
-51.75884628 -745.82238770 22.89385605
-51.74076843 -745.99047852 22.93838501
-51.71167374 -746.24353027 22.99869728
-46.42624664 -741.28674316 0.17386800
-46.45681381 -742.20544434 0.88265198
-46.42480087 -742.40252686 0.89633697
-46.41945648 -742.49713135 0.93885601
-46.41629791 -742.59088135 0.98864502
-46.43735886 -742.67547607 1.11936200
-46.40160751 -742.92016602 1.15070498
-51.04604721 -744.11285400 18.59111977
-51.05078125 -744.19305420 18.66041374
-51.09387589 -744.25622559 18.85620499
-51.12979889 -744.32238770 19.02823067
-51.16088486 -744.39056396 19.18420219
-51.22104645 -744.44549561 19.43588448
-51.26850510 -744.50592041 19.64556503
-51.31525803 -744.56646729 19.85277367
-51.37473679 -744.62103271 20.10175133
-51.43379211 -744.67559814 20.34917450
-51.46691895 -744.74169922 20.51113892
-51.47622299 -744.81854248 20.59464645
-51.49562836 -744.89068604 20.71130753
-51.50600052 -744.96691895 20.79821777
-51.54045486 -745.03186035 20.96420097
-51.60041809 -745.08483887 21.21385384
-51.63909912 -745.14746094 21.39346504
-51.67660522 -745.21044922 21.56910515
-51.68951035 -745.28485107 21.66392326
-51.68355179 -745.52874756 21.80161285
-51.69152069 -745.60522461 21.88008499
-51.68478394 -745.76892090 21.96264839
-51.76094818 -746.13201904 22.47270393
-51.66998291 -746.33648682 22.27965927
-46.58622360 -741.70819092 0.61920500
-46.55340195 -742.18408203 0.81224501
-46.55568314 -742.27587891 0.88038802
-46.55526352 -742.36865234 0.93946803
-46.54953384 -742.46331787 0.98074198
-51.17462921 -743.98840332 18.57143211
-51.19465256 -744.06188965 18.69125748
-51.21233749 -744.13623047 18.80330658
-51.22734833 -744.21173096 18.90646362
-51.26424026 -744.27734375 19.08168793
-51.30239868 -744.34222412 19.26097870
-51.32417297 -744.41430664 19.38616753
-51.35666656 -744.56311035 19.59994507
-51.42244720 -744.61486816 19.86973572
-51.50311279 -744.65948486 20.18832970
-51.57799911 -744.70648193 20.48771667
-51.59898376 -744.77795410 20.60967827
-51.60432434 -744.85650635 20.68016624
-51.62421799 -744.92828369 20.79842377
-51.65036774 -744.99707031 20.93715477
-51.67791367 -745.06500244 21.08037567
-51.69166565 -745.13934326 21.17823219
-51.72780228 -745.20300293 21.34947968
-51.76517487 -745.26593018 21.52467537
-51.79302597 -745.33319092 21.66854286
-51.80756760 -745.40667725 21.76868820
-51.80049515 -745.89123535 22.05980301
-51.76901627 -746.14672852 22.11373520
-46.56800842 -742.44415283 0.85834497
-46.55986404 -742.53979492 0.89162600
-46.54837799 -743.19079590 1.27574503
-51.28728104 -744.08837891 18.85582924
-51.44596481 -744.58996582 19.75252914
-51.49011612 -744.65130615 19.95091057
-51.56890106 -744.69653320 20.26297760
-51.75901794 -746.24578857 21.95690536
-46.65728760 -741.23693848 0.29213801
-46.67506409 -741.64910889 0.62490702
-46.67203522 -741.74304199 0.67537302
-46.67279816 -741.83557129 0.73850501
-51.35614014 -744.12243652 19.01639366
-51.37688828 -744.27709961 19.19170189
-51.40128326 -744.34796143 19.32538033
-51.45305252 -744.40631104 19.54899406
-51.89697647 -745.81494141 22.05949593
-46.67797470 -742.21527100 0.84734499
-46.66918945 -742.31121826 0.87843198
-46.65777206 -742.40808105 0.90072298
-46.61811447 -742.70074463 0.94952297
-46.58774948 -742.89733887 0.96895999
-51.43337250 -744.17590332 19.16873550
-51.45324707 -744.24884033 19.28755188
-51.51444626 -744.30291748 19.54215813
-51.53310013 -744.53930664 19.76321411
-51.61147690 -744.66607666 20.12680626
-51.68407440 -744.71368408 20.41805649
-51.71510315 -744.78039551 20.57275963
-51.73546600 -744.85192871 20.69239044
-51.76349640 -744.91973877 20.83708763
-51.79199219 -744.98718262 20.98322296
-51.79786301 -745.06518555 21.05514717
-51.94599915 -745.39709473 21.80259705
-46.70895386 -741.51641846 0.30854100
-46.68225098 -741.89813232 0.46144199
-46.70248413 -741.98352051 0.58956599
-46.66814804 -742.55255127 0.83712101
-46.65148926 -742.65148926 0.84184802
-46.64522171 -743.11596680 1.12192500
-51.42526627 -744.14611816 18.92753410
-51.52349091 -744.26556396 19.35744095
-51.56386566 -744.41064453 19.59666634
-51.60591507 -744.47296143 19.78799057
-51.63395691 -744.62298584 19.98623276
-51.70466614 -744.67150879 20.27132607
-51.90393448 -745.06365967 21.24100876
-52.02293015 -745.40881348 21.89241028
-51.83106613 -746.06579590 21.63255310
-51.79011154 -746.13397217 21.53015327
-46.76606750 -741.65570068 0.34085101
-46.77886581 -741.74401855 0.44413900
-46.77811432 -741.83715820 0.50203699
-46.78610992 -742.01983643 0.64947897
-46.78374481 -742.11346436 0.70186502
-46.78970718 -742.20391846 0.78205597
-46.76158905 -742.39984131 0.80859399
-46.68601227 -742.79913330 0.79720902
-51.61761856 -744.36590576 19.50085449
-51.63598633 -744.52075195 19.66740990
-51.64014053 -744.60040283 19.73410797
-51.71698761 -744.64617920 20.03945732
-51.82312012 -744.67803955 20.44074059
-51.87266541 -744.73596191 20.65607262
-51.90015030 -744.80401611 20.79890823
-51.94404984 -744.86425781 20.99547005
-51.95757294 -744.93859863 21.09232521
-51.96755600 -745.01458740 21.17753410
-52.00482178 -745.07751465 21.35206032
-52.05165100 -745.13562012 21.55779076
-52.07227707 -745.20617676 21.67762184
-52.12341309 -745.42230225 22.00151443
-52.12224579 -745.58306885 22.10188484
-52.06022263 -745.82501221 22.03675842
-51.89776993 -745.99987793 21.56789207
-46.86842728 -741.57940674 0.26442900
-46.88041687 -741.66796875 0.36509001
-46.88314819 -742.31640625 0.79666299
-46.87303162 -742.41284180 0.82309401
-46.85583115 -742.51196289 0.82586199
-46.82573318 -742.70867920 0.84578103
-46.80932617 -742.80749512 0.85122401
-46.75374222 -742.92175293 0.72608101
-46.76296234 -743.01062012 0.81696302
-46.79222488 -743.09143066 0.97453803
-51.70516205 -744.45965576 19.49404907
-51.70921707 -744.53942871 19.56048965
-51.81076050 -744.65521240 20.00015259
-51.94256973 -744.67474365 20.48586845
-51.95294571 -744.75091553 20.57265663
-51.99411774 -744.81250000 20.76044846
-52.00814438 -744.88677979 20.85909271
-52.07097244 -744.93774414 21.11768913
-52.09286880 -745.00793457 21.24194336
-52.11449814 -745.07818604 21.36525154
-52.13511658 -745.14880371 21.48516464
-52.16298676 -745.21582031 21.62876320
-52.01239777 -746.01422119 21.60771751
-47.18249893 -741.69470215 1.04036200
-47.00233841 -742.41052246 0.85968399
-46.98286438 -742.51055908 0.85488802
-46.95922089 -742.61218262 0.83619499
-46.95464706 -742.70642090 0.88113701
-46.93633270 -742.80603027 0.88023603
-46.87663651 -743.01434326 0.80159301
-46.86621094 -743.11090088 0.82702303
-51.90988922 -744.41058350 19.78196335
-51.85753250 -744.51641846 19.66290855
-51.83698273 -744.68908691 19.70155525
-51.84575272 -744.76641846 19.78340530
-52.10794449 -744.72399902 20.69713020
-52.14791107 -744.78594971 20.88098717
-52.15628815 -744.86279297 20.96108437
-52.19129181 -744.92681885 21.12846375
-52.21362305 -744.99676514 21.25418663
-52.24419022 -745.06262207 21.40682602
-52.27642059 -745.12750244 21.56481552
-52.30904388 -745.19207764 21.72399712
-52.33856964 -745.25799561 21.87293434
-52.48950195 -745.59014893 22.63109970
-52.34863281 -745.68151855 22.18484306
-47.12658310 -742.41418457 0.92640603
-47.10746002 -742.51397705 0.92283797
-47.08117676 -742.61663818 0.89539498
-47.05663681 -742.71862793 0.87378597
-47.06811142 -742.80651855 0.97227901
-47.02397537 -742.91625977 0.88538599
-47.00518799 -743.01605225 0.88300699
-46.96948624 -743.12261963 0.82430500
-52.40181351 -744.72363281 21.37601852
-52.40164185 -744.95703125 21.52765083
-52.41075516 -745.03302002 21.60993195
-52.42701721 -745.10546875 21.71557999
-52.45200348 -745.17364502 21.84973335
-52.48151398 -745.23937988 21.99860954
-52.49209595 -745.31433105 22.08546066
-47.27507019 -742.62750244 1.10239398
-47.30334473 -742.70855713 1.25694203
-47.28240967 -742.80902100 1.24734700
-47.29487228 -742.89611816 1.34905803
-47.27663040 -742.99548340 1.34842598
-47.23048782 -743.10601807 1.25489902
-52.61056900 -744.78216553 21.67759323
-52.63601303 -744.85021973 21.81346893
-52.62403488 -745.01641846 21.87903023
-52.63100815 -745.17327881 22.00658607
-52.63586044 -745.25097656 22.07477188
-52.68222046 -745.30816650 22.27872658
-52.71988678 -745.36950684 22.45410538
-52.71512222 -745.60711670 22.59226799
-52.62025452 -745.92687988 22.46038055
-52.88581467 -745.00201416 22.22896194
-52.92077255 -745.14471436 22.44814682
-52.92966080 -745.22015381 22.52952385
-52.93570328 -745.29687500 22.60154915
-52.93040848 -745.68890381 22.83945274
-52.89304352 -745.85565186 22.81443977
-52.86236954 -745.93048096 22.75320053
-52.82720947 -746.00201416 22.67371750
-52.79251099 -746.07409668 22.59620667
-52.73287201 -746.22534180 22.48096848
-53.12020493 -744.98522949 22.51220512
-53.12963867 -745.07305908 22.60370064
-53.14492798 -745.14520264 22.70600891
-53.14890289 -745.22283936 22.77120972
-53.18383789 -745.19989014 22.88179588
-53.26226807 -745.02673340 22.63261223
-53.26932144 -745.10296631 22.70787811
-53.27867889 -745.17797852 22.79064178
-53.29919815 -745.24737549 22.90988541
-53.28504944 -745.74713135 23.18627357
-53.24835968 -745.91400146 23.16357994
-53.48049164 -745.09979248 23.02302933
-53.49465561 -745.28033447 23.19222260
-53.46591568 -745.54980469 23.26537132
-53.46146774 -745.73999023 23.37388611
-53.41613770 -745.90032959 23.31593513
-53.36928940 -746.05969238 23.25186920
-53.61730576 -745.92932129 23.53189659
-53.84556961 -745.14581299 23.26488876
-53.87106705 -745.21234131 23.40039825
-54.00799561 -746.64935303 23.75562668
-53.94862366 -746.79962158 23.63986397
-53.89913940 -746.95690918 23.56429291
-54.25791550 -745.97900391 23.84615898
-54.22510910 -746.14770508 23.83836365
-54.19311523 -746.31695557 23.83386040
-54.00659943 -747.04913330 23.64124870
-54.52367020 -746.00726318 24.07741165
-54.71324539 -745.67443848 24.20472336
-54.62657928 -745.89996338 24.04036331
-54.59859848 -746.07202148 24.05215454
-54.56776047 -746.24200439 24.05228996
-54.53913116 -746.41351318 24.06137276
-54.90933228 -745.59118652 24.35603142
-54.86104584 -745.74816895 24.28502655
-54.80530167 -745.89984131 24.18374443
-54.76570511 -746.06347656 24.14834213
-54.73462677 -746.23315430 24.14759254
-54.70359802 -746.40289307 24.14703560
-54.68235397 -746.57952881 24.18620110
-54.65839386 -746.75415039 24.21425247
-55.14052200 -745.61468506 24.52270699
-55.09908295 -745.69189453 24.42412758
-55.00616074 -746.00854492 24.29720116
-54.96626663 -746.17175293 24.26062393
-54.93092728 -746.33831787 24.24262047
-54.90681839 -746.51287842 24.27031708
-54.87309647 -746.77624512 24.32167244
-54.84589005 -746.94836426 24.33662415
-54.81718826 -747.11230469 24.34081459
-55.58005524 -744.62969971 24.78384781
-55.56973267 -744.79193115 24.85299873
-55.53619003 -744.96551514 24.84586906
-55.47842789 -745.22973633 24.81086540
-55.42894363 -745.41149902 24.75165558
-55.38397217 -745.59118652 24.70734787
-55.27798080 -745.79040527 24.45585823
-55.20715332 -746.02685547 24.35556793
-55.17041397 -746.19226074 24.33156967
-55.14397812 -746.36511230 24.34959793
-55.12376022 -746.54229736 24.39289093
-55.10289383 -746.71887207 24.43343925
-55.07239914 -746.88854980 24.43475723
-55.03413391 -747.05279541 24.40449715
-55.00334549 -747.22222900 24.40458107
-54.98200989 -747.32867432 24.39747620
-55.75871277 -744.91937256 25.01086044
-55.71730042 -745.09674072 24.97774315
-55.68148804 -745.19293213 24.91165924
-55.65332031 -745.28546143 24.87070656
-55.62057114 -745.38031006 24.81477165
-55.59208298 -745.47314453 24.77284431
-55.55950165 -745.56805420 24.71754837
-55.51145172 -745.74938965 24.66311646
-55.45238876 -745.86718750 24.52729797
-55.40452576 -746.02423096 24.45761108
-55.36668396 -746.18872070 24.42893219
-55.33124542 -746.35491943 24.41007042
-55.30820465 -746.53002930 24.44171524
-55.27255630 -746.79174805 24.48464775
-55.24727631 -746.96502686 24.50702477
-55.21973419 -747.13665771 24.52015877
-55.18881989 -747.30578613 24.51952744
-55.98783875 -744.59112549 25.10066223
-55.78240204 -745.39862061 24.88875008
-55.73821640 -745.57775879 24.84673309
-56.11278534 -744.67248535 25.14497185
-56.08468628 -744.84307861 25.15531731
-56.01390076 -745.11322021 25.07699394
-55.98086166 -745.20806885 25.01998138
-55.91045380 -745.47857666 24.94325256
-55.88260269 -745.57098389 24.90338135
-55.85522079 -745.66326904 24.86509895
-55.77083969 -745.83392334 24.67273140
-55.72704315 -745.99377441 24.61948395
-55.67815018 -746.15002441 24.54554367
-55.63825989 -746.31292725 24.50837898
-55.60874939 -746.48333740 24.51350594
-55.59267426 -746.66320801 24.57323837
-55.56413269 -746.83410645 24.58218956
-55.53533173 -747.00482178 24.59005737
-55.50908279 -747.17724609 24.60826302
-55.48674393 -747.35223389 24.64223289
-55.45673370 -747.52185059 24.64505386
-55.41737366 -747.68511963 24.61003494
-55.37719727 -747.84783936 24.57174683
-55.33586502 -748.06964111 24.56789398
-56.24776840 -744.83575439 25.22650909
-56.21522522 -745.00848389 25.22217560
-56.15515900 -745.19500732 25.12772560
-56.05570984 -745.47991943 24.95575523
-55.99988937 -745.66497803 24.87563896
-55.50173187 -747.99792480 24.60591888
-56.58112335 -745.17651367 25.19370079
-56.51884842 -745.36431885 25.09173012
-56.39352417 -745.81945801 24.93692970
-56.33850861 -745.95220947 24.82519722
-56.29402924 -746.11126709 24.76864624
-56.22982025 -746.35192871 24.69416809
-56.19621658 -746.51904297 24.68208122
-56.17351532 -746.69396973 24.71433830
-56.14562607 -746.86511230 24.72544098
-56.11498642 -747.03424072 24.72533607
-56.08484650 -747.20367432 24.72723389
-56.05141449 -747.37084961 24.71575546
-56.01896667 -747.53863525 24.70825958
-55.98853683 -747.70782471 24.70892715
-55.96151352 -747.87921143 24.72334099
-55.93235016 -748.04919434 24.72908401
-55.90199280 -748.21826172 24.72995949
-55.86196136 -748.38092041 24.69177818
-55.82548523 -748.56512451 24.68046379
-57.00635147 -744.14367676 25.32138252
-56.98168945 -744.31231689 25.34245872
-56.94899368 -744.48486328 25.33711815
-56.91535568 -744.65789795 25.32872772
-56.87409592 -744.83471680 25.29532242
-56.84337997 -744.92816162 25.24553490
-56.81384277 -745.02105713 25.19964409
-56.77232742 -745.19836426 25.16561317
-56.74355316 -745.29107666 25.12233353
-56.71224213 -745.38507080 25.07078362
-56.68621445 -745.47650146 25.03658676
-56.64419556 -745.65447998 25.00118256
-56.59314346 -745.83715820 24.93627930
-56.54525375 -745.97906494 24.85620499
-56.50142288 -746.13854980 24.80221367
-56.45929718 -746.29937744 24.75525093
-56.42438507 -746.46551514 24.73774529
-56.39777756 -746.63757324 24.75406647
-56.37300491 -746.81091309 24.77780533
-56.34238434 -746.97998047 24.77769852
-56.28905487 -747.22839355 24.74746323
-56.25951385 -747.39813232 24.75171661
-56.22766495 -747.56628418 24.74657822
-56.19475174 -747.73370361 24.73712730
-56.16260529 -747.90161133 24.73075104
-56.13854599 -748.07495117 24.75709152
-56.11214066 -748.24664307 24.77386665
-56.08247375 -748.41607666 24.77745628
-56.01227951 -748.66949463 24.68969917
-57.13438797 -744.15032959 25.17964554
-56.89310837 -745.36621094 25.10378838
-56.45109940 -748.28265381 24.84301567
-56.42244720 -748.45269775 24.85093498
-56.38753510 -748.61859131 24.83359718
-56.35343170 -748.78503418 24.81952477
-56.32012558 -748.85772705 24.74702454
-56.29028320 -748.94738770 24.69808578
-56.69449234 -749.00848389 24.81768990
-56.66327286 -749.08270264 24.75366592
-56.59888458 -749.34063721 24.69021416
-57.26091766 -746.47473145 24.87588120
-57.22414017 -746.63940430 24.85103226
-57.19362259 -746.90386963 24.91397285
-57.17369843 -747.08032227 24.95752525
-57.14330292 -747.24938965 24.95852661
-57.10198212 -747.41082764 24.91518211
-57.06491470 -747.57525635 24.88914299
-57.03002548 -747.74121094 24.87194252
-56.70867538 -749.32464600 24.74931717
-56.67683411 -749.51727295 24.76051331
-57.65944672 -745.29284668 25.12458611
-57.62106705 -745.46881104 25.10125732
-57.58529282 -745.64355469 25.08652115
-57.55207825 -745.81713867 25.08021164
-56.82068634 -749.32989502 24.73974419
-58.29956818 -743.99188232 25.15001106
-58.29386902 -744.15179443 25.23366928
-57.34423828 -749.45800781 24.77450371
-57.29280853 -749.64501953 24.71143150
-58.60351944 -744.29095459 25.35599136
-58.56946564 -744.46423340 25.34657478
-58.80591583 -744.20928955 25.41475105
-58.77607346 -744.38043213 25.41911507
-58.73246002 -744.55834961 25.37825203
-58.58228302 -745.18078613 25.24407196
-58.53772736 -745.35980225 25.20053482
-58.50135422 -745.53479004 25.18388176
-58.46023560 -745.71234131 25.15177536
-58.38220215 -746.04772949 25.08986855
-58.34938812 -746.21520996 25.08111000
-58.26811981 -746.53894043 24.99991608
-58.19317245 -746.86737061 24.94455147
-58.14099503 -747.21185303 24.98171425
-58.11203384 -747.38195801 24.98855591
-58.08142853 -747.55090332 24.98872757
-58.05115509 -747.72003174 24.99019051
-58.01887512 -747.88775635 24.98352623
-58.96713638 -744.21057129 25.47520638
-58.93436813 -744.38305664 25.46994209
-58.89446640 -744.55908203 25.44127274
-58.82899475 -744.74774170 25.32869911
-58.56915665 -745.89630127 25.14353752
-58.37183380 -747.31341553 24.96295166
-58.34360886 -747.48400879 24.97290230
-58.27982330 -747.82012939 24.96302605
-58.24644089 -747.98718262 24.95205307
-58.20685196 -748.15002441 24.91598701
-58.16255569 -748.30987549 24.86093330
-58.12822723 -748.47631836 24.84618568
-58.09497452 -748.64355469 24.83577728
-58.06357193 -748.81188965 24.83281326
-58.03253937 -748.98046875 24.83130264
-58.00114059 -749.14880371 24.82833290
-57.97110748 -749.31799316 24.83080673
-57.94013596 -749.48651123 24.82951355
-57.89987946 -749.64923096 24.79094505
-57.85707855 -749.81048584 24.74223518
-57.82299042 -749.89886475 24.67720032
-59.16192245 -744.31872559 25.48311234
-59.12265396 -744.49438477 25.45644951
-59.05000687 -744.76483154 25.37145424
-59.00606537 -744.94311523 25.32967949
-58.96394730 -745.12060547 25.29395866
-57.97020721 -749.83807373 24.79738045
-57.94301605 -749.96545410 24.78266525
-59.07840729 -745.14849854 25.29577065
-58.17717361 -749.95318604 24.68005753
-58.75308228 -747.92871094 24.95453644
-58.72027588 -748.09600830 24.94522285
-58.67477798 -748.25488281 24.88461685
-58.63221359 -748.41583252 24.83590889
-58.59733582 -748.58190918 24.81829262
-58.39804077 -749.67858887 24.81392860
-58.34702682 -749.83465576 24.73159218
-58.29854584 -750.03802490 24.68919563
-59.66296768 -744.07104492 25.34476089
-59.59253693 -744.57574463 25.41915703
-59.55791092 -744.74945068 25.40730476
-59.37286758 -745.54681396 25.25880814
-59.33023453 -745.72515869 25.22107506
-59.28914642 -745.90277100 25.18850517
-59.14155579 -746.58184814 25.09808731
-59.09381866 -746.73858643 25.02789116
-59.74160004 -744.01959229 25.30705833
-58.77015305 -748.66693115 24.82836151
-58.73718262 -748.83422852 24.81836510
-58.69787216 -748.99749756 24.78285980
-58.66246414 -749.16333008 24.76308823
-58.63292694 -749.33282471 24.76687622
-58.60303879 -749.50207520 24.76923943
-58.57242966 -749.67089844 24.76869202
-58.53495026 -749.83538818 24.74062729
-58.50220871 -749.97680664 24.71456718
-59.85305786 -744.10601807 25.35408401
-59.82106781 -744.35681152 25.40230179
-59.79353714 -744.52703857 25.41405296
-59.76420593 -744.69818115 25.41990089
-59.72144699 -744.87597656 25.38172722
-59.68438721 -745.05108643 25.36233139
-59.62382889 -745.31646729 25.31708527
-59.58988190 -745.49023438 25.30804825
-59.54632187 -745.66900635 25.26762390
-59.47673035 -745.93994141 25.19344902
-59.44084167 -746.10504150 25.17177582
-59.68458939 -745.78436279 25.26974869
-58.74959183 -750.01849365 24.66434479
-60.15304947 -744.12463379 25.23555756
-58.92655563 -750.08526611 24.70099258
-58.90668869 -750.26043701 24.74361801
-58.89295959 -750.38720703 24.77679443
-60.27404404 -745.24169922 25.32968140
-59.48805618 -748.77050781 24.78881454
-59.40659714 -749.09527588 24.70615196
-59.37506104 -749.26354980 24.70179558
-59.34718323 -749.43402100 24.71209526
-60.58075333 -744.16271973 25.30228996
-60.55913162 -744.33013916 25.33315659
-60.54164886 -744.49560547 25.37761497
-60.51290131 -744.66656494 25.38503838
-60.47793198 -744.84063721 25.37206650
-60.44104004 -745.01574707 25.35283279
-60.39964294 -745.19329834 25.31889915
-60.35580826 -745.37213135 25.27705574
-60.31384659 -745.55023193 25.24144173
-60.27476501 -745.75543213 25.23385811
-60.23927689 -745.92065430 25.21325302
-60.20793915 -746.08892822 25.20959091
-60.17417145 -746.25543213 25.19602013
-60.13735580 -746.41973877 25.17004204
-60.46725082 -745.42864990 25.26870346
-60.42831421 -745.60528564 25.24294090
-60.35509109 -745.97113037 25.21644402
-60.21884537 -746.63629150 25.15699005
-60.17742538 -746.79748535 25.11227417
-60.12936020 -746.95416260 25.04066849
-60.08665466 -747.11462402 24.99085236
-60.05409622 -747.28210449 24.98220062
-60.02846909 -747.45428467 25.00156021
-59.99905777 -747.62384033 25.00557709
-59.96531296 -747.79046631 24.99208832
-59.92710114 -747.95410156 24.96055603
-59.88717651 -748.11669922 24.92215157
-59.84226227 -748.27612305 24.86367226
-59.80576706 -748.44110107 24.83917046
-59.75936890 -748.59973145 24.77486801
-59.72204590 -748.76428223 24.74710655
-59.68390274 -748.92834473 24.71607590
-59.64390182 -749.09124756 24.67762947
-59.60854721 -749.25714111 24.65784454
-59.58232498 -749.42871094 24.67466927
-59.55498886 -749.59948730 24.68697357
-59.52594376 -749.76922607 24.69240761
-59.48860931 -749.93383789 24.66469383
-59.43323517 -750.08782959 24.56496048
-59.38288879 -750.24493408 24.48544884
-60.85199738 -744.10809326 25.19603348
-60.84869003 -744.26678467 25.28711891
-60.83841705 -744.42877197 25.35521889
-60.81524658 -744.59698486 25.38088036
-60.78662872 -744.76794434 25.38865471
-60.75369263 -744.94116211 25.38228798
-60.70981979 -745.11993408 25.34012032
-60.67504120 -745.29418945 25.32783127
-60.62929153 -745.47418213 25.27968597
-60.60028076 -745.60046387 25.25702095
-60.56839371 -745.76831055 25.25099182
-60.53779221 -745.93707275 25.25018311
-60.49906540 -746.09997559 25.21625710
-60.41314316 -746.51507568 25.17588425
-60.37693024 -746.67987061 25.15225410
-60.33271790 -746.83911133 25.09617233
-60.28420258 -746.99548340 25.02273560
-60.24640274 -747.15936279 24.99278069
-60.21568298 -747.32806396 24.99153900
-60.18622208 -747.49761963 24.99535751
-60.15542984 -747.66625977 24.99377632
-60.12549210 -747.83544922 24.99563789
-60.08662033 -747.99865723 24.96139717
-59.56457520 -750.20916748 24.51367569
-61.07779312 -743.96990967 25.18621254
-60.29945374 -747.94781494 24.96328926
-60.25191116 -748.10540771 24.89415550
-60.20746613 -748.26513672 24.83763504
-60.16987991 -748.42944336 24.80878639
-60.13534546 -748.59570312 24.79224968
-60.08756638 -748.75360107 24.72246170
-60.05094147 -748.91864014 24.69758415
-60.01463318 -749.08392334 24.67399216
-59.83675766 -750.00646973 24.63184166
-59.79312897 -750.16754150 24.57906532
-59.73247147 -750.38262939 24.50001335
-61.25934219 -744.07971191 25.20207024
-61.00336075 -745.57568359 25.25158882
-60.96910095 -745.74182129 25.23600197
-60.93461990 -745.90777588 25.21952820
-60.90432739 -746.07678223 25.22015762
-60.87197113 -746.24426270 25.21234131
-60.84019852 -746.41210938 25.20689011
-60.80032730 -746.57427979 25.16848183
-60.76549911 -746.73999023 25.15060616
-60.72445297 -746.90148926 25.10751152
-60.67335129 -747.05609131 25.02363777
-60.63747787 -747.22125244 25.00161934
-60.60618591 -747.38958740 24.99820328
-60.57624054 -747.55877686 25.00021172
-60.54442978 -747.72668457 24.99465561
-60.50735855 -747.89111328 24.96780586
-60.46933746 -748.05493164 24.93715668
-60.42090988 -748.21203613 24.86456871
-60.37864685 -748.37322998 24.81690979
-60.34445572 -748.53973389 24.80181122
-60.29999542 -748.69970703 24.74542618
-60.26214600 -748.86395264 24.71565628
-60.22469330 -749.02844238 24.68753242
-60.19057083 -749.19512939 24.67279816
-60.15509033 -749.36096191 24.65263176
-60.12120056 -749.52777100 24.63883400
-60.09101486 -749.69677734 24.63989258
-60.06143188 -749.86614990 24.64331818
-60.02346802 -750.03051758 24.61322594
-59.97827530 -750.19061279 24.55428314
-59.92331314 -750.34515381 24.45640945
-61.41169357 -743.95520020 25.13220406
-60.47303009 -750.46661377 24.42046928
-62.20772934 -744.21020508 25.18559074
-60.76609039 -750.72448730 24.20469856
-60.73649216 -750.89068604 24.20562935
-62.35260391 -744.23590088 25.19613838
-60.99032974 -750.52453613 24.35630035
-62.41712952 -744.19799805 25.02549362
-62.43130875 -744.34796143 25.17400932
-61.92757034 -746.93695068 25.03467369
-61.89091873 -747.10137939 25.00899124
-61.84763718 -747.26135254 24.95646858
-61.80950546 -747.42486572 24.92484283
-61.03500748 -750.82580566 24.33443832
-62.49015808 -744.28015137 25.09483528
-61.36988449 -749.63842773 24.52621460
-61.32894897 -749.80096436 24.48386955
-61.29808426 -749.96954346 24.48175049
-61.12779999 -750.70983887 24.34722900
-62.58167267 -744.10906982 25.07193565
-62.55551147 -744.51434326 25.24046135
-62.53770828 -744.67999268 25.28371239
-62.47422028 -745.02252197 25.27693748
-62.21737289 -746.26727295 25.15804100
-62.18095398 -746.43176270 25.13340759
-61.54383469 -749.46014404 24.53937912
-61.50748444 -749.62542725 24.51549911
-62.34517288 -746.61975098 25.09164047
-62.23151016 -747.11077881 24.99960899
-61.54518127 -750.15606689 24.49578476
-62.60061646 -746.15887451 25.13283539
-63.14811707 -744.36755371 25.10837364
-62.74104309 -746.56256104 25.05513573
-62.73483276 -747.29235840 24.91817093
-62.97816467 -747.04296875 25.00194740
-62.93719101 -747.20465088 24.95852470
-62.89064407 -747.36267090 24.89270592
-62.85039520 -747.52502441 24.85231018
-62.81961823 -747.69360352 24.85005188
-62.77845764 -747.85540771 24.80605316
-62.74323273 -748.02111816 24.78592491
-62.70479202 -748.18481445 24.75293350
-62.66373062 -748.34686279 24.70944977
-62.62667847 -748.51153564 24.68209267
-62.58685684 -748.67449951 24.64365959
-62.54098892 -748.83386230 24.58111000
-62.50508881 -748.99938965 24.55844879
-62.46772385 -749.16406250 24.52996826
-62.42940140 -749.32818604 24.49767494
-62.12572479 -750.73779297 24.31199837
-63.62007141 -744.41882324 25.02863503
-63.62153625 -744.57519531 25.13486862
-63.59879303 -744.74359131 25.16168976
-63.57035065 -744.91491699 25.16984177
-63.54337311 -745.01525879 25.13743019
-63.51010132 -745.18218994 25.12531281
-63.47430801 -745.34722900 25.10291481
-63.43921661 -745.51281738 25.08341408
-63.40869522 -745.68164062 25.08248138
-63.37996292 -745.85174561 25.08878136
-63.34923935 -746.02038574 25.08698654
-63.31700897 -746.18798828 25.07906914
-63.28713989 -746.35717773 25.08072090
-63.25234222 -746.52294922 25.06236649
-63.22172928 -746.69158936 25.06096268
-63.18956757 -746.85913086 25.05327606
-63.15397263 -747.02435303 25.03170586
-63.04180908 -747.42218018 24.88446808
-62.81527328 -748.40679932 24.70405388
-62.77238846 -748.56787109 24.65353012
-62.73662567 -748.73345947 24.63159561
-63.74564743 -744.33007812 24.99880219
-62.94417953 -748.30664062 24.67717361
-62.90938950 -748.47277832 24.65905380
-62.48026276 -750.36822510 24.33606148
-62.44396210 -750.53387451 24.31216240
-62.39952850 -750.69500732 24.25603104
-62.34177780 -750.84875488 24.14716530
-63.80187607 -744.40972900 25.03277206
-63.78896713 -744.57342529 25.09163666
-63.76389313 -744.74316406 25.11058998
-63.73536301 -744.91467285 25.11822701
-63.70489883 -745.08721924 25.11956596
-63.67590714 -745.24127197 25.11433983
-62.41205215 -750.91601562 24.21552086
-63.66464233 -745.46685791 25.09721947
-63.62186050 -745.62701416 25.04632378
-63.58675766 -745.79272461 25.02664185
-63.55958557 -745.96411133 25.03913116
-63.52984238 -746.13360596 25.04116249
-63.49953079 -746.30267334 25.04085159
-63.46806335 -746.47088623 25.03585434
-63.43753815 -746.63977051 25.03466225
-63.40331650 -746.80603027 25.01849747
-63.90437317 -744.53765869 25.06879234
-63.06102371 -748.57855225 24.64235115
-62.98896408 -748.81561279 24.53615761
-62.88848114 -749.22357178 24.43791962
-62.83940506 -749.47534180 24.42380714
-62.80711746 -749.64337158 24.41609764
-62.76966858 -749.80834961 24.38784409
-62.73839188 -749.97705078 24.38417435
-62.70546722 -750.14477539 24.37393570
-62.65118027 -750.39343262 24.33911324
-62.61063385 -750.55676270 24.29865456
-62.56082153 -750.71496582 24.22153473
-64.03159332 -744.45782471 25.01232338
-64.16315460 -744.35253906 24.95951843
-64.43839264 -744.38903809 25.01563644
-63.01808929 -750.88348389 24.06901741
-64.60650635 -744.37927246 25.03168106
-64.01455688 -747.45501709 24.87449455
-64.76306152 -744.27593994 24.95869637
-64.91158295 -744.25189209 24.98677635
-63.63817596 -750.92852783 24.07474327
-65.11399841 -744.36035156 24.96780586
-65.10229492 -744.52349854 25.03076363
-65.07787323 -744.69293213 25.05198860
-65.04652405 -744.86578369 25.05056381
-65.00868225 -745.04199219 25.02791786
-64.97769928 -745.21484375 25.02774811
-64.94350433 -745.38934326 25.01713371
-65.20732117 -744.28009033 24.88779259
-65.21503448 -744.43383789 25.01449966
-65.18885040 -744.60406494 25.02998543
-65.16161346 -744.77490234 25.04204178
-65.12817383 -744.94885254 25.03378677
-65.08639526 -745.12713623 24.99834251
-65.05032349 -745.30261230 24.98160553
-63.75667953 -750.91723633 23.94479370
-65.40692902 -744.31805420 24.95817566
-65.38934326 -744.48406982 25.00207710
-65.36386871 -744.65393066 25.02007294
-65.33389282 -744.82611084 25.02332687
-65.29780579 -745.00140381 25.00661850
-65.26137543 -745.17694092 24.98881721
-65.23207092 -745.34899902 24.99440193
-63.98860550 -750.90740967 24.10723686
-65.64060974 -744.21002197 24.96373558
-65.60603333 -744.44610596 24.99197769
-65.58095551 -744.61578369 25.01141357
-65.55281067 -744.78698730 25.02078247
-65.51614380 -744.96252441 25.00227547
-65.48874664 -745.05493164 24.96332550
-65.46115875 -745.14746094 24.92381287
-65.43009949 -745.32043457 24.92381096
-65.77299500 -744.32739258 24.93072319
-65.75298309 -744.49456787 24.96689224
-65.73028564 -744.66302490 24.99423790
-65.70155334 -744.83459473 25.00179482
-65.66134644 -745.01196289 24.97174835
-65.62341309 -745.18829346 24.94924164
-64.28367615 -750.98803711 23.87665749
-65.85178375 -744.28405762 24.84851646
-65.83419800 -744.47534180 24.90880013
-65.81082153 -744.72290039 24.98461914
-65.78004456 -744.89556885 24.98531723
-65.73699188 -745.07446289 24.94586754
-65.70143890 -745.24969482 24.93106079
-65.90837097 -744.62237549 24.97099686
-65.88324738 -744.79223633 24.99002647
-66.05181122 -744.35284424 24.81327629
-66.04157257 -744.51544189 24.88136101
-66.02308655 -744.68200684 24.92238235
-65.99767303 -744.85205078 24.94070435
-65.96851349 -745.02398682 24.94677544
-65.93079376 -745.20037842 24.92491341
-66.26126099 -744.24133301 24.84028435
-66.23986816 -744.39984131 24.86589622
-66.22531891 -744.56445312 24.92007446
-66.20484161 -744.73193359 24.95478439
-66.17633820 -744.90350342 24.96319008
-66.13840485 -745.07983398 24.94079781
-65.27001190 -748.96557617 24.32993889
-65.19270325 -749.29425049 24.26440811
-65.15236664 -749.45770264 24.22498322
-66.40898132 -744.34039307 24.76729202
-66.41379547 -744.41674805 24.83410072
-66.39485931 -744.58355713 24.87386703
-66.37575531 -744.75042725 24.91308403
-66.34632111 -744.92248535 24.91842079
-66.31224823 -745.09698486 24.90861320
-66.57520294 -744.31011963 24.67963982
-66.58097076 -744.38610840 24.74957848
-66.58053589 -744.54382324 24.84998512
-66.56301880 -744.70996094 24.89424515
-66.53534698 -744.88116455 24.90516472
-66.50370789 -745.05438232 24.90310287
-66.46891785 -745.22930908 24.89075661
-65.67976379 -748.76873779 24.33388901
-65.12532043 -750.97259521 23.75972939
-66.76900482 -744.19799805 24.66707611
-66.74246216 -744.42657471 24.71910858
-66.74571991 -744.58251953 24.83163261
-66.72202301 -744.75177002 24.85553169
-66.69282532 -744.92376709 24.86140442
-66.65553284 -745.09997559 24.84075928
-66.61618042 -745.27728271 24.81342125
-66.11267090 -747.65228271 24.53216934
-65.78009033 -749.13897705 24.29339790
-65.72821808 -749.29522705 24.20727539
-65.31636047 -750.92779541 23.77679634
-66.89154816 -744.52386475 24.76973915
-66.87386322 -744.68609619 24.81077003
-66.84543610 -744.85772705 24.81916428
-66.81023407 -745.03283691 24.80535698
-66.77330780 -745.20892334 24.78594971
-67.03001404 -744.54583740 24.77139664
-67.01755524 -744.70953369 24.83209229
-66.98005676 -744.88574219 24.81053543
-66.94126892 -745.06274414 24.78480530
-66.91545105 -745.15454102 24.75090218
-66.88217926 -745.32885742 24.74338531
-65.81613159 -750.15917969 24.01483727
-65.74627686 -750.49291992 23.97820854
-65.60462189 -750.87963867 23.71673775
-67.21489716 -744.33819580 24.73299980
-67.20829010 -744.49908447 24.81282425
-67.17952728 -744.67083740 24.81976128
-67.14466858 -744.84576416 24.80667686
-67.10192871 -745.02471924 24.76777267
-67.06233978 -745.20220947 24.73931694
-67.02812958 -745.37707520 24.72854233
-66.01209259 -749.95031738 24.00931740
-65.97908783 -750.11828613 23.99847603
-65.93892670 -750.28210449 23.95912552
-65.90352631 -750.44879150 23.93878555
-65.82051849 -750.77514648 23.84958649
-65.78347778 -750.94104004 23.82282829
-67.37863159 -744.30682373 24.66418457
-67.36716461 -744.47021484 24.72801018
-67.35126495 -744.63574219 24.77719498
-67.32190704 -744.80792236 24.78214836
-67.28150177 -744.98571777 24.75081444
-67.24123383 -745.16351318 24.72000122
-67.20836639 -745.33770752 24.71356773
-67.19044495 -745.44598389 24.71860695
-67.15908051 -745.61474609 24.71410751
-67.12500763 -745.78155518 24.69856262
-67.09316254 -745.95001221 24.69207954
-67.05284119 -746.11236572 24.65114594
-67.01206970 -746.27447510 24.60840034
-66.97817230 -746.44146729 24.59360695
-66.94785309 -746.61102295 24.59334946
-66.91525269 -746.77893066 24.58383942
-66.88401031 -746.94769287 24.57979774
-66.85115814 -747.11541748 24.56921387
-66.80810547 -747.27624512 24.51740646
-66.76728058 -747.43865967 24.47466660
-66.73406219 -747.60620117 24.46266174
-66.69989777 -747.77307129 24.44684601
-66.66654205 -747.94055176 24.43429947
-66.63029480 -748.10607910 24.41011620
-66.59178925 -748.27026367 24.37685013
-66.54575348 -748.42962646 24.31334114
-66.50213623 -748.59063721 24.25962639
-66.46199036 -748.75396729 24.21993256
-66.11940765 -750.23791504 23.93921089
-66.08132172 -750.40301514 23.90806007
-65.92667389 -750.96929932 23.71463013
-67.58880615 -744.28448486 24.69803047
-67.56787872 -744.41674805 24.70776176
-67.54552460 -744.58544922 24.73583603
-67.52212524 -744.75469971 24.76047707
-67.48394012 -744.93133545 24.73654938
-67.44722748 -745.10736084 24.71748543
-67.40877533 -745.28436279 24.69280815
-67.37520599 -745.45892334 24.68420029
-67.33503723 -745.63098145 24.65011787
-67.30474854 -745.80059814 24.65018082
-67.27273560 -745.96899414 24.64316368
-67.23666382 -746.13446045 24.61964607
-67.19978333 -746.29937744 24.59287071
-67.16894531 -746.46856689 24.59062386
-67.13470459 -746.63537598 24.57456970
-67.10422516 -746.80480957 24.57378960
-67.07106781 -746.97235107 24.56212997
-67.03639221 -747.13885498 24.54429054
-66.99896240 -747.30352783 24.51537132
-66.95896912 -747.46649170 24.47609329
-66.92568207 -747.63403320 24.46391487
-66.88684845 -747.79785156 24.42937279
-66.85098267 -747.96368408 24.40682411
-66.80950165 -748.12591553 24.36170578
-66.77050781 -748.28985596 24.32660484
-66.73353577 -748.45507812 24.29969788
-66.69106293 -748.61688232 24.25071526
-66.63051605 -748.86175537 24.19000435
-66.59000397 -749.02496338 24.14902687
-66.54701996 -749.18676758 24.09815979
-66.50382996 -749.34851074 24.04654694
-66.46482849 -749.51287842 24.01174736
-66.43080902 -749.68035889 23.99688530
-66.39412689 -749.84619141 23.97141457
-66.36248016 -750.01507568 23.96606827
-66.32390594 -750.17987061 23.93308258
-66.28684998 -750.34564209 23.90616608
-66.24462128 -750.50842285 23.85870743
-66.20556641 -750.67309570 23.82387543
-66.16630554 -750.83770752 23.78831673
-66.13610077 -750.91406250 23.72850990
-67.76672363 -744.45172119 24.65486908
-67.74291992 -744.62115479 24.67826843
-67.72064972 -744.78985596 24.70672607
-67.68536377 -744.96508789 24.69236183
-67.65126038 -745.13983154 24.68196869
-67.61934662 -745.31353760 24.67880249
-67.58647919 -745.48779297 24.67255211
-67.54149628 -745.65234375 24.61628342
-67.50825500 -745.81988525 24.60437584
-67.47773743 -745.98944092 24.60354424
-67.44115448 -746.15460205 24.57802200
-67.40533447 -746.32031250 24.55560684
-67.37375641 -746.48907471 24.55045700
-67.34053040 -746.65661621 24.53858757
-67.30649567 -746.82366943 24.52346230
-67.27690887 -746.99371338 24.52634811
-67.24023438 -747.15887451 24.50050926
-67.19973755 -747.32153320 24.45921707
-67.16512299 -747.48822021 24.44175911
-67.12906647 -747.65393066 24.41848183
-67.09179688 -747.81884766 24.39029884
-67.05988312 -747.98730469 24.38377571
-67.01983643 -748.15051270 24.34448051
-66.98241425 -748.31549072 24.31575966
-66.93701172 -748.47534180 24.25494957
-66.88890076 -748.63360596 24.18331718
-66.85315704 -748.79980469 24.16149712
-66.81436920 -748.96417236 24.12746429
-66.77451324 -749.12786865 24.08919716
-66.73091125 -749.28936768 24.03593445
-66.69514465 -749.45574951 24.01412773
-66.65785980 -749.62121582 23.98626328
-66.61636353 -749.78424072 23.94156837
-66.58177185 -749.95141602 23.92452240
-66.54579926 -750.11779785 23.90198708
-66.50908661 -750.28375244 23.87650681
-66.47245789 -750.44982910 23.85139465
-66.43840790 -750.61737061 23.83655739
-66.39527893 -750.77978516 23.78559875
-66.36258698 -750.85473633 23.71587372
-67.98488617 -744.47125244 24.62623405
-67.97082520 -744.63586426 24.68181801
-67.94556427 -744.80603027 24.70052528
-67.90882874 -744.98199463 24.68147469
-67.86679077 -745.16076660 24.64505386
-67.83402252 -745.33489990 24.63917732
-67.80442810 -745.50744629 24.64378548
-67.76119995 -745.66601562 24.58998680
-67.72949219 -745.83471680 24.58443832
-67.69716644 -746.00292969 24.57635117
-67.66386414 -746.17047119 24.56428146
-67.62682343 -746.33538818 24.53696251
-67.59196472 -746.50183105 24.51855278
-67.55907440 -746.66961670 24.50815201
-67.52236938 -746.83483887 24.48229980
-67.48841095 -747.00195312 24.46755600
-67.45265198 -747.16784668 24.44553185
-67.41725159 -747.33398438 24.42496872
-67.37901306 -747.49829102 24.39295197
-67.34410095 -747.66479492 24.37440872
-67.29431915 -747.91632080 24.35707664
-67.26112366 -748.08398438 24.34546852
-67.22029114 -748.24676514 24.30307579
-67.17361450 -748.40576172 24.23715973
-67.13053131 -748.56726074 24.18579483
-67.09014130 -748.73052979 24.14534950
-67.05274200 -748.89575195 24.11697197
-66.69285583 -750.46466064 23.83030510
-68.20371246 -744.35351562 24.53849220
-68.18149567 -744.55902100 24.59101868
-68.16930389 -744.72277832 24.65276527
-68.13948822 -744.89526367 24.65646744
-68.09779358 -745.07379150 24.62111664
-68.06047058 -745.25024414 24.60020256
-68.01612091 -745.43035889 24.55629158
-67.99182892 -745.57592773 24.56252670
-67.96132660 -745.74554443 24.56186104
-67.93011475 -745.91461182 24.55830574
-67.89900208 -746.08374023 24.55511856
-67.86201477 -746.24859619 24.52796936
-67.82886505 -746.41625977 24.51645279
-67.79530334 -746.58361816 24.50331116
-67.76242065 -746.75146484 24.49290848
-67.72197723 -746.91412354 24.45177460
-67.68976593 -747.08239746 24.44410515
-67.65308380 -747.24768066 24.41826630
-67.61822510 -747.41418457 24.39988708
-67.55536652 -747.65698242 24.32953262
-66.79365540 -750.95568848 23.70748901
-68.39705658 -744.34869385 24.54592705
-68.37662506 -744.55383301 24.60461235
-68.35311890 -744.72314453 24.62911224
-68.32483673 -744.89489746 24.63786697
-68.28314209 -745.07342529 24.60250092
-68.24013519 -745.25280762 24.56294060
-68.20431519 -745.42858887 24.54706955
-68.17824554 -745.57141113 24.54510689
-68.14635468 -745.74005127 24.53881073
-68.11206818 -745.90692139 24.52270889
-68.08005524 -746.07543945 24.51588249
-68.04747772 -746.24346924 24.50671196
-68.01181793 -746.40936279 24.48501587
-67.97708893 -746.57598877 24.46713257
-67.94107056 -746.74169922 24.44399261
-67.91055298 -746.91119385 24.44322586
-67.87631989 -747.07812500 24.42736244
-67.84200287 -747.24499512 24.41116714
-67.80445862 -747.40972900 24.38185883
-67.76437378 -747.57281494 24.34235382
-67.67518616 -747.98797607 24.28821754
-67.63887024 -748.15368652 24.26401520
-66.96685791 -750.85058594 23.57733345
-67.70800781 -748.49340820 24.17137718
-67.66459656 -748.65472412 24.11849022
-67.94326019 -748.08746338 24.20990181
-67.85066986 -748.50073242 24.14113998
-67.81016541 -748.66394043 24.09973526
-67.75577545 -748.81842041 24.00255966
-67.35989380 -750.55468750 23.68866158
-68.85056305 -744.46258545 24.43839836
-67.68981934 -749.95806885 23.77532578
-67.65445709 -750.12493896 23.75476265
-69.05458069 -744.55413818 24.39490318
-68.38058472 -748.04376221 24.20484161
-67.90658569 -750.01214600 23.75823784
-69.42084503 -744.60961914 24.35042953
-69.40352631 -744.77618408 24.39530182
-69.37243652 -744.94964600 24.39481354
-69.34381866 -745.12194824 24.40249252
-69.30664825 -745.29864502 24.38204765
-68.32237244 -749.78192139 23.71455193
-68.09980774 -750.68444824 23.49175644
-69.54439545 -744.60168457 24.28169823
-69.53083801 -744.76641846 24.33895683
-69.50748444 -744.93609619 24.36387634
-69.48055267 -745.10760498 24.37700081
-69.44202423 -745.28503418 24.35199547
-68.96599579 -747.61639404 24.13274384
-68.91692352 -747.86877441 24.11793327
-69.68206024 -744.49096680 24.19060707
-69.67849731 -744.65087891 24.28082848
-69.66618347 -744.81506348 24.34208488
-69.64279938 -744.98480225 24.36682701
-69.60651398 -745.16107178 24.34907722
-69.57362366 -745.33575439 24.34257889
-69.08406830 -747.74407959 24.12229347
-69.05059052 -747.91180420 24.10918617
-69.00978088 -748.07482910 24.06647491
-68.96746826 -748.23693848 24.01772118
-68.92893982 -748.40155029 23.98431396
-68.88745117 -748.56433105 23.93899155
-68.84148407 -748.72436523 23.87570953
-68.79940796 -748.88696289 23.82815933
-69.83425140 -744.57568359 24.22449112
-69.82147980 -744.74005127 24.28472137
-69.79812622 -744.90972900 24.31003952
-69.76936340 -745.08215332 24.31754112
-69.73854828 -745.25573730 24.31832886
-69.23203278 -747.73876953 24.09165764
-68.51158905 -750.69323730 23.39514542
-69.93677521 -744.75000000 24.19133377
-69.93230438 -744.91009521 24.27926064
-69.90287781 -745.08288574 24.28495979
-69.23721313 -748.30651855 23.96830177
-69.19496918 -748.46893311 23.92080688
-69.15157318 -748.63073730 23.86872864
-69.10573578 -748.79113770 23.80687332
-69.06977081 -748.95770264 23.78482819
-69.02841187 -749.12103271 23.74113083
-68.98269653 -749.28179932 23.67994881
-68.94615173 -749.44818115 23.65568924
-68.90997314 -749.61480713 23.63291168
-68.87604523 -749.78283691 23.61915970
-68.84384918 -749.95184326 23.61237717
-68.80825806 -750.11889648 23.59199524
-68.73960876 -750.36071777 23.50039482
-68.69532776 -750.52294922 23.44536972
-70.06772614 -744.64733887 24.16802025
-70.05317688 -744.81256104 24.22323608
-70.03493500 -744.97955322 24.26624107
-70.18534088 -744.79193115 24.18575096
-70.15909576 -744.96301270 24.20256042
-68.99179840 -750.31750488 23.47471428
-68.91764832 -750.65026855 23.42367172
-70.34188843 -744.71447754 24.00136757
-70.34956360 -744.78948975 24.07828712
-70.58229828 -744.70037842 24.02366447
-70.81101990 -744.69885254 23.96964645
-70.22817230 -747.84539795 23.92221260
-70.43267059 -747.85821533 23.86395836
-70.59745026 -747.96264648 23.80549049
-70.55596924 -748.12548828 23.76211166
-70.11537933 -749.93078613 23.35123825
-70.07696533 -750.09625244 23.32077408
-70.01041412 -750.33947754 23.23918152
-70.75931549 -747.94403076 23.77339554
-70.72370148 -748.11053467 23.75395584
-70.67354584 -748.26806641 23.67544937
-70.62858582 -748.42889404 23.61813354
-70.59334564 -748.59582520 23.60033607
-70.55698395 -748.76208496 23.57796478
-70.52685547 -748.83795166 23.51840973
-70.48820496 -749.00299072 23.48686218
-70.43760681 -749.16088867 23.40703392
-70.39738464 -749.32513428 23.36923218
-70.34744263 -749.57763672 23.35456848
-70.30878448 -749.74285889 23.32318497
-70.27542114 -749.91113281 23.31312180
-70.10146332 -750.46844482 23.04820633
-70.88053131 -747.88214111 23.73229218
-70.84593201 -748.04931641 23.71722984
-70.28910828 -750.25714111 23.15368080
-70.91324615 -748.14990234 23.67676544
-70.86454773 -748.30847168 23.60481071
-70.83047485 -748.47613525 23.59231758
-70.78574371 -748.63732910 23.53662682
-70.73931885 -748.79766846 23.47412682
-70.68083191 -749.04492188 23.42568588
-70.64106750 -749.20941162 23.39027023
-70.60364532 -749.37530518 23.36439133
-70.55966949 -749.53747559 23.31207848
-70.78395081 -748.93682861 23.45786858
-70.59471893 -749.67126465 23.25699997
-70.56062317 -749.83923340 23.24452209
-70.52172089 -750.00445557 23.21273232
-70.48019409 -750.16827393 23.17044640
-70.43408203 -750.32971191 23.10973930
-71.07228088 -748.04815674 23.70341873
-70.58917236 -750.20465088 23.12573814
-71.20395660 -748.11230469 23.62375641
-71.15482330 -748.27075195 23.54970169
-71.11375427 -748.43426514 23.50839615
-71.07016754 -748.59625244 23.45698738
-71.02911377 -748.75988770 23.41585350
-70.94789886 -749.08789062 23.33737183
-70.90988922 -749.25354004 23.30869484
-70.86936188 -749.41772461 23.26989746
-70.82393646 -749.57922363 23.21139526
-70.78598785 -749.74505615 23.18305397
-70.75214386 -749.91320801 23.17129326
-70.70414734 -750.07354736 23.10261726
-70.65969086 -750.23596191 23.04825974
-71.36436462 -747.89410400 23.66006470
-71.46843719 -747.99261475 23.60407257
-71.33147430 -748.47485352 23.42495155
-71.29611969 -748.64196777 23.40712547
-71.24395752 -748.79919434 23.32130814
-71.20731354 -748.96563721 23.29831123
-71.17011261 -749.13177490 23.27312088
-71.12852478 -749.29547119 23.23025703
-71.09176636 -749.46197510 23.20688629
-71.04462433 -749.62268066 23.14171410
-71.00807190 -749.78942871 23.11927223
-70.96560669 -749.95288086 23.07304001
-70.93068695 -750.12060547 23.05721474
-71.63433838 -748.07757568 23.53700256
-71.58737183 -748.23748779 23.47224236
-71.54309082 -748.39923096 23.41844940
-71.50222778 -748.56304932 23.37860680
-71.45355225 -748.72235107 23.30713272
-71.41442108 -748.88732910 23.27440643
-71.37619781 -749.05297852 23.24536705
